ply
format ascii 1.0
element vertex 2153
property float x
property float y
property float z
end_header
-721.19 534.38 1675.7
-718.22 535.40 1679.0
-725.75 544.31 1706.9
-730.91 551.54 1729.6
-722.96 548.91 1721.3
-702.47 536.67 1682.9
-715.98 550.41 1726.0
-743.17 574.91 1802.8
-737.30 573.98 1799.9
-722.04 565.67 1773.9
-728.82 574.65 1802.0
-736.55 584.49 1832.9
-720.31 575.31 1804.1
-704.20 566.12 1775.3
-702.63 568.57 1783.0
-711.15 579.28 1816.6
-728.21 597.13 1872.5
-761.58 628.69 1971.5
-753.24 630.26 1976.4
-745.65 628.19 1969.9
-1300.75 647.72 2047.8
-1275.69 637.84 2016.6
-1205.27 610.14 1929.0
-1163.82 591.61 1870.4
-1139.37 581.60 1838.8
-1129.75 579.11 1830.9
-1126.22 579.74 1832.9
-1099.49 568.38 1797.0
-1074.92 558.04 1764.3
-1054.97 550.03 1739.0
-1040.10 544.60 1721.8
-1057.14 555.91 1757.6
-1056.68 558.08 1764.4
-1048.78 556.31 1758.8
-1055.67 562.41 1778.1
-1044.32 558.80 1766.7
-1036.92 557.29 1761.9
-1031.01 556.56 1759.6
-1016.35 551.08 1742.3
-996.42 542.69 1715.8
-979.98 536.13 1695.0
-979.97 538.54 1702.6
-978.49 540.16 1707.8
-959.78 532.24 1682.7
-933.56 520.07 1644.2
-921.72 515.83 1630.8
-920.80 517.69 1636.7
-918.44 518.75 1640.1
-900.11 510.76 1614.8
-874.40 498.49 1576.0
-866.54 496.33 1569.2
-855.93 492.56 1557.3
-738.34 508.91 1609.0
-748.00 518.50 1639.3
-749.59 522.57 1652.1
-747.55 524.15 1657.1
-744.32 524.89 1659.5
-754.76 535.35 1692.6
-770.12 549.44 1737.1
-773.65 555.21 1755.3
-760.91 549.30 1736.7
-746.72 542.26 1714.4
-740.63 541.06 1710.6
-728.11 535.11 1691.8
-718.68 531.39 1680.0
-720.58 536.04 1694.7
-717.92 537.34 1698.9
-702.98 529.40 1673.8
-700.71 530.97 1678.7
-731.89 558.06 1764.4
-746.95 573.13 1812.0
-729.05 562.94 1779.8
-720.34 559.75 1769.7
-733.26 573.44 1813.0
-739.53 582.08 1840.3
-722.56 572.42 1809.8
-708.91 565.27 1787.2
-710.48 570.25 1802.9
-725.61 586.25 1853.5
-750.24 610.20 1929.2
-752.75 616.35 1948.6
-734.21 605.23 1913.5
-742.81 616.48 1949.1
-1319.79 654.49 2086.3
-1288.00 641.35 2044.4
-1262.01 631.01 2011.5
-1164.46 587.08 1871.5
-1135.93 575.09 1833.2
-1127.83 573.39 1827.8
-1124.82 574.27 1830.6
-1108.67 568.43 1812.0
-1095.11 563.87 1797.4
-1091.12 564.21 1798.6
-1094.12 568.19 1811.2
-1080.13 563.35 1795.8
-1048.84 549.39 1751.3
-1043.44 548.94 1749.9
-1051.83 555.77 1771.6
-1033.61 548.54 1748.6
-1018.91 543.12 1731.3
-1010.12 540.82 1724.0
-991.63 533.28 1699.9
-993.59 536.72 1710.9
-996.47 540.69 1723.6
-981.01 534.69 1704.5
-966.58 529.21 1687.0
-969.90 533.44 1700.5
-963.15 532.15 1696.4
-938.86 521.11 1661.2
-926.54 516.64 1646.9
-918.50 514.53 1640.2
-896.41 504.49 1608.2
-873.97 494.16 1575.2
-867.51 492.81 1570.9
-858.28 489.87 1561.6
-729.41 495.83 1580.6
-741.61 506.98 1616.1
-754.86 518.96 1654.3
-759.59 525.20 1674.2
-756.32 525.95 1676.6
-751.47 525.60 1675.5
-765.02 538.18 1715.6
-782.68 553.82 1765.4
-771.04 552.04 1759.8
-738.36 531.80 1695.2
-712.85 516.49 1646.4
-725.91 529.13 1686.7
-741.81 544.00 1734.1
-732.32 540.31 1722.3
-718.01 533.00 1699.1
-721.28 538.73 1717.3
-737.79 554.49 1767.6
-743.77 562.47 1793.0
-734.25 558.77 1781.2
-725.52 555.62 1771.1
-727.68 560.82 1787.8
-731.57 567.44 1808.8
-728.91 569.02 1813.9
-714.49 561.38 1789.5
-703.35 556.24 1773.2
-703.55 560.06 1785.3
-718.38 575.66 1835.0
-743.42 599.70 1911.7
-746.33 606.08 1932.0
-734.69 600.66 1914.7
-751.15 618.30 1971.0
-1295.91 639.96 2057.0
-1271.95 630.72 2027.3
-1194.72 597.36 1920.1
-1157.43 581.13 1867.9
-1143.17 576.39 1852.7
-1140.61 577.53 1856.3
-1123.41 571.22 1836.1
-1099.74 561.57 1805.0
-1088.72 558.32 1794.6
-1082.73 557.63 1792.4
-1060.31 548.44 1762.8
-1048.93 544.90 1751.5
-1064.80 555.55 1785.7
-1066.72 558.98 1796.7
-1042.05 548.45 1762.9
-1016.05 537.12 1726.4
-996.04 528.87 1699.9
-981.97 523.72 1683.4
-988.34 529.47 1701.9
-986.89 531.06 1707.0
-967.12 522.77 1680.3
-943.61 512.37 1646.9
-940.32 512.90 1648.6
-956.55 524.14 1684.7
-951.27 523.64 1683.1
-936.06 517.64 1663.8
-925.16 513.98 1652.1
-913.37 509.79 1638.6
-896.94 502.96 1616.7
-875.94 493.49 1586.2
-856.92 485.05 1559.1
-733.89 494.76 1590.3
-744.88 505.00 1623.2
-750.93 512.00 1645.7
-754.50 517.37 1663.0
-750.47 517.56 1663.6
-746.82 518.03 1665.1
-760.41 530.52 1705.2
-777.32 545.49 1753.4
-778.89 549.81 1767.2
-769.59 546.45 1756.5
-741.52 529.66 1702.5
-715.21 513.92 1651.9
-727.13 525.64 1689.5
-747.20 543.42 1746.7
-741.06 542.24 1742.9
-722.20 531.68 1709.0
-720.99 534.07 1716.7
-725.30 540.60 1737.6
-719.57 539.68 1734.7
-714.58 539.30 1733.5
-710.68 539.76 1734.9
-713.30 545.19 1752.4
-717.99 552.30 1775.2
-719.35 556.92 1790.1
-709.60 552.94 1777.3
-711.95 558.39 1794.8
-726.54 573.59 1843.7
-723.05 574.61 1847.0
-728.94 583.15 1874.4
-744.73 599.79 1927.9
-746.52 605.29 1945.6
-747.88 610.52 1962.4
-760.38 624.97 2008.8
-1322.76 645.12 2091.0
-1297.64 635.47 2059.7
-1278.80 628.83 2038.2
-1183.53 589.29 1910.1
-1164.11 582.06 1886.6
-1155.92 580.40 1881.2
-1121.50 565.50 1833.0
-1083.24 548.53 1778.0
-1075.77 547.08 1773.3
-1074.33 548.69 1778.5
-1065.88 546.72 1772.1
-1067.89 550.12 1783.1
-1061.92 549.43 1780.9
-1042.15 541.55 1755.3
-1030.34 537.76 1743.1
-1016.61 532.94 1727.4
-1008.81 531.19 1721.7
-1007.35 532.78 1726.9
-991.32 526.64 1707.0
-968.58 516.87 1675.3
-968.14 518.96 1682.1
-962.39 518.21 1679.7
-936.54 506.58 1642.0
-932.78 506.85 1642.9
-934.71 510.23 1653.8
-925.70 507.64 1645.4
-926.16 510.25 1653.9
-923.29 511.03 1656.4
-901.67 501.40 1625.2
-875.51 489.14 1585.4
-863.92 484.94 1571.8
-746.14 501.64 1626.0
-750.19 507.23 1644.1
-750.19 510.13 1653.5
-753.30 515.19 1669.9
-757.53 521.07 1689.0
-751.47 519.91 1685.2
-745.43 518.75 1681.4
-759.19 531.44 1722.5
-763.89 537.89 1743.5
-743.13 526.39 1706.2
-724.45 516.22 1673.2
-730.63 523.76 1697.7
-745.02 537.32 1741.6
-737.38 535.05 1734.3
-717.04 523.49 1696.8
-714.75 525.03 1701.8
-718.72 531.23 1721.9
-710.07 528.12 1711.8
-702.57 525.82 1704.3
-697.65 525.44 1703.1
-697.80 528.91 1714.3
-696.10 531.00 1721.1
-690.78 530.34 1719.0
-695.44 537.39 1741.8
-712.76 554.37 1796.9
-734.76 575.24 1864.5
-738.58 582.06 1886.6
-729.41 578.66 1875.6
-729.98 583.00 1889.7
-739.77 594.82 1928.0
-749.39 606.65 1966.3
-746.25 608.24 1971.5
-742.40 609.28 1974.9
-1302.98 632.72 2068.2
-1281.55 624.89 2042.6
-1261.75 617.78 2019.4
-1248.17 613.68 2006.0
-1178.46 584.28 1909.9
-1170.73 582.89 1905.3
-1135.24 567.62 1855.4
-1096.91 550.79 1800.4
-1092.92 551.13 1801.5
-1092.42 553.24 1808.4
-1085.91 552.32 1805.4
-1073.94 548.59 1793.2
-1053.09 540.28 1766.1
-1039.76 535.77 1751.3
-1032.88 534.56 1747.3
-1023.06 531.81 1738.4
-1019.14 532.12 1739.4
-1020.09 534.98 1748.7
-1005.95 529.92 1732.2
-982.19 519.72 1698.9
-981.22 521.55 1704.8
-983.59 525.17 1716.7
-966.27 518.27 1694.1
-945.23 509.30 1664.8
-930.95 503.91 1647.2
-921.49 501.08 1637.9
-921.49 503.41 1645.5
-924.29 507.28 1658.2
-907.81 500.57 1636.2
-885.35 490.48 1603.2
-872.32 485.54 1587.1
-859.36 480.59 1570.9
-744.59 496.39 1622.6
-753.85 505.42 1652.1
-756.62 510.18 1667.6
-762.48 517.08 1690.2
-762.33 519.97 1699.7
-749.97 514.52 1681.8
-728.71 502.86 1643.7
-725.87 503.84 1646.9
-739.63 516.43 1688.1
-730.14 512.83 1676.3
-716.10 505.99 1654.0
-726.90 516.71 1689.0
-742.84 531.24 1736.5
-736.71 530.07 1732.7
-723.86 524.02 1712.9
-730.10 531.80 1738.3
-730.66 535.52 1750.5
-719.00 530.26 1733.3
-702.28 521.19 1703.6
-688.60 514.27 1681.0
-701.51 527.25 1723.4
-712.41 538.87 1761.5
-704.49 536.32 1753.1
-706.23 541.14 1768.8
-708.25 546.23 1785.5
-714.42 554.62 1812.9
-729.24 569.87 1862.8
-732.31 576.09 1883.1
-729.41 577.65 1888.2
-736.80 587.45 1920.2
-742.68 596.17 1948.7
-734.13 593.34 1939.5
-729.68 593.81 1941.0
-1288.59 625.58 2062.4
-1279.02 623.52 2055.6
-1241.41 607.72 2003.5
-1174.91 580.02 1912.1
-1150.50 570.38 1880.4
-1124.20 559.71 1845.2
-1107.57 553.78 1825.7
-1096.02 550.36 1814.4
-1081.01 545.17 1797.2
-1061.10 537.44 1771.8
-1063.58 541.04 1783.6
-1073.42 548.43 1808.0
-1062.00 544.97 1796.6
-1047.67 539.99 1780.2
-1030.95 533.72 1759.5
-1018.70 529.73 1746.3
-1018.16 531.81 1753.2
-1007.42 528.56 1742.5
-991.41 522.50 1722.5
-979.33 518.47 1709.2
-968.73 515.19 1698.4
-955.78 510.62 1683.4
-940.04 504.52 1663.2
-928.16 500.44 1649.8
-919.65 498.14 1642.2
-914.92 497.89 1641.4
-909.26 497.12 1638.9
-893.79 490.96 1618.5
-877.47 484.27 1596.5
-859.85 476.79 1571.8
-741.02 489.83 1614.8
-746.71 496.39 1636.5
-746.72 499.24 1645.8
-757.40 509.28 1679.0
-762.40 515.61 1699.8
-754.36 513.14 1691.7
-736.58 503.98 1661.5
-732.93 504.43 1662.9
-746.66 516.92 1704.1
-749.82 522.20 1721.5
-749.08 524.80 1730.1
-739.53 521.24 1718.4
-734.96 521.15 1718.1
-735.66 524.83 1730.2
-729.56 523.67 1726.4
-733.17 529.51 1745.6
-731.12 531.31 1751.6
-724.99 530.15 1747.7
-714.46 525.74 1733.2
-699.62 518.07 1707.9
-712.11 530.68 1749.5
-718.63 538.97 1776.8
-705.65 532.65 1756.0
-706.67 536.89 1770.0
-708.70 541.94 1786.6
-703.59 541.58 1785.4
-706.89 547.73 1805.7
-719.18 560.96 1849.3
-726.40 570.40 1880.4
-735.21 581.21 1916.1
-743.50 591.77 1950.9
-742.44 594.97 1961.4
-745.72 601.72 1983.7
-748.23 607.94 2004.2
-1284.30 620.75 2064.1
-1244.11 603.84 2007.8
-1176.39 578.23 1922.7
-1127.32 556.46 1850.3
-1091.08 540.88 1798.5
-1081.58 538.47 1790.5
-1068.12 534.06 1775.8
-1054.70 529.64 1761.1
-1062.17 535.70 1781.3
-1058.19 536.03 1782.4
-1034.50 526.32 1750.1
-1030.07 526.38 1750.3
-1023.69 525.43 1747.1
-1014.38 522.97 1738.9
-1015.80 526.04 1749.2
-1008.46 524.58 1744.3
-995.34 520.09 1729.4
-986.12 517.60 1721.1
-976.93 515.11 1712.8
-959.66 508.31 1690.2
-940.08 500.23 1663.3
-939.59 502.27 1670.1
-940.95 505.33 1680.3
-925.79 499.50 1660.9
-910.24 493.40 1640.6
-910.66 495.94 1649.1
-900.79 492.88 1638.9
-867.76 477.06 1586.3
-742.27 486.46 1617.5
-742.35 489.28 1626.9
-745.18 493.95 1642.4
-759.44 506.29 1683.5
-760.49 509.93 1695.6
-747.75 504.29 1676.8
-744.84 505.27 1680.1
-757.09 516.60 1717.8
-768.40 527.42 1753.7
-769.14 531.08 1765.9
-759.11 527.29 1753.3
-739.60 516.83 1718.5
-722.52 507.96 1689.0
-710.47 502.53 1671.0
-711.63 506.44 1684.0
-722.43 517.29 1720.1
-729.72 525.76 1748.2
-733.19 531.56 1767.5
-728.49 531.48 1767.2
-719.77 528.44 1757.1
-722.72 533.99 1775.6
-720.16 535.51 1780.6
-711.84 532.73 1771.4
-718.90 541.51 1800.6
-716.24 543.03 1805.7
-706.50 539.17 1792.8
-708.74 544.47 1810.4
-718.93 555.97 1848.7
-725.13 564.53 1877.1
-733.60 574.99 1911.9
-751.17 592.76 1971.0
-760.97 604.61 2010.4
-761.78 609.42 2026.4
-1258.56 605.58 2031.1
-1179.55 574.78 1927.8
-1123.38 549.74 1843.8
-1093.68 537.49 1802.8
-1091.18 538.56 1806.4
-1072.68 531.72 1783.4
-1055.27 525.35 1762.0
-1057.78 528.89 1773.9
-1047.88 526.23 1765.0
-1021.75 515.35 1728.5
-1017.37 515.41 1728.7
-1022.28 520.19 1744.7
-1024.21 523.48 1755.8
-1017.33 522.29 1751.8
-1001.25 516.34 1731.8
-986.22 510.88 1713.5
-975.59 507.66 1702.7
-975.07 509.70 1709.5
-964.48 506.46 1698.7
-948.70 500.46 1678.6
-951.50 504.25 1691.3
-940.53 500.75 1679.5
-913.11 488.41 1638.1
-905.58 486.64 1632.2
-914.44 493.71 1655.9
-920.40 499.27 1674.6
-883.57 481.56 1615.2
-753.98 489.88 1643.1
-758.02 495.30 1661.2
-761.98 500.73 1679.5
-771.01 509.57 1709.1
-764.51 508.20 1704.5
-753.70 503.93 1690.2
-753.12 506.48 1698.8
-754.05 510.09 1710.9
-753.38 512.65 1719.5
-759.60 519.96 1744.0
-755.36 520.16 1744.6
-740.82 513.22 1721.4
-729.03 508.11 1704.2
-716.57 502.47 1685.3
-716.94 505.82 1696.5
-723.62 513.68 1722.9
-725.34 518.10 1737.7
-725.51 521.46 1749.0
-717.92 519.25 1741.6
-714.01 519.69 1743.1
-722.08 528.91 1774.0
-724.95 534.42 1792.5
-723.06 536.46 1799.3
-724.35 540.91 1814.2
-716.33 538.42 1805.9
-712.95 539.40 1809.2
-721.48 549.47 1842.9
-734.05 562.77 1887.6
-742.25 572.87 1921.4
-736.13 572.00 1918.5
-737.24 576.75 1934.4
-758.38 597.35 2003.5
-1276.58 608.91 2060.2
-1252.77 600.06 2030.3
-1245.31 599.01 2026.7
-1226.73 592.57 2004.9
-1139.51 555.15 1878.3
-1114.82 545.45 1845.5
-1076.25 528.85 1789.3
-1063.30 524.75 1775.5
-1071.25 530.97 1796.5
-1070.71 533.02 1803.4
-1053.36 526.68 1782.0
-1031.18 517.86 1752.2
-1021.36 515.20 1743.2
-1016.46 515.01 1742.5
-1003.28 510.60 1727.6
-999.86 511.14 1729.4
-997.39 512.17 1732.9
-981.42 506.25 1712.9
-976.08 505.79 1711.3
-965.97 502.83 1701.3
-949.69 496.63 1680.3
-943.95 495.90 1677.9
-924.96 488.17 1651.7
-899.95 477.18 1614.5
-895.75 477.17 1614.5
-902.77 483.18 1634.8
-909.25 488.94 1654.3
-899.39 485.92 1644.1
-865.49 469.84 1589.7
-737.76 472.50 1598.7
-767.32 494.21 1672.1
-780.92 505.82 1711.4
-775.20 504.99 1708.6
-769.88 504.40 1706.6
-767.73 505.90 1711.7
-762.41 505.31 1709.7
-757.09 504.73 1707.7
-752.16 504.39 1706.6
-753.83 508.50 1720.5
-762.37 517.32 1750.3
-766.93 523.54 1771.4
-761.10 522.69 1768.5
-758.70 524.19 1773.6
-755.51 525.17 1776.9
-743.30 519.85 1758.9
-735.64 517.67 1751.5
-730.98 517.59 1751.2
-724.85 516.45 1747.4
-718.36 515.05 1742.6
-715.18 516.01 1745.9
-722.52 524.63 1775.1
-723.95 529.04 1790.0
-719.55 529.22 1790.6
-718.72 532.04 1800.1
-705.04 525.33 1777.4
-696.06 522.05 1766.3
-705.41 532.56 1801.9
-718.43 546.01 1847.4
-728.12 557.08 1884.9
-722.43 556.47 1882.8
-720.19 558.51 1889.7
-737.70 576.01 1948.9
-1264.47 597.84 2040.7
-1258.00 597.29 2038.8
-1265.77 603.51 2060.0
-1259.77 603.20 2058.9
-1213.40 583.46 1991.6
-1116.40 541.43 1848.1
-1083.32 527.65 1801.1
-1076.82 526.76 1798.0
-1076.79 529.03 1805.8
-1068.30 527.15 1799.4
-1060.83 525.76 1794.6
-1048.94 522.16 1782.3
-1029.26 514.63 1756.6
-1015.54 510.02 1740.9
-1004.79 506.88 1730.2
-1003.30 508.40 1735.4
-1010.98 514.60 1756.5
-1004.59 513.66 1753.3
-979.01 502.86 1716.4
-948.79 489.56 1671.1
-942.10 488.34 1666.9
-946.36 492.81 1682.1
-940.14 491.83 1678.8
-927.32 487.38 1663.6
-909.87 480.44 1639.9
-906.08 480.69 1640.8
-906.95 483.42 1650.1
-892.44 477.94 1631.4
-871.53 468.96 1600.8
-738.19 468.63 1599.6
-753.26 480.90 1641.5
-768.14 493.18 1683.4
-766.07 494.66 1688.5
-765.17 496.92 1696.2
-768.97 502.28 1714.5
-769.15 505.32 1724.8
-769.28 508.36 1735.2
-765.47 508.81 1736.8
-767.46 513.15 1751.6
-768.22 516.72 1763.8
-765.09 517.70 1767.1
-759.65 517.11 1765.1
-756.88 518.35 1769.3
-765.41 527.39 1800.2
-765.17 530.45 1810.6
-753.28 525.43 1793.5
-743.70 521.97 1781.7
-736.01 519.81 1774.3
-727.62 517.11 1765.1
-724.03 517.82 1767.5
-730.24 525.59 1794.0
-723.67 524.19 1789.3
-710.99 518.34 1769.3
-711.65 522.18 1782.4
-700.14 517.10 1765.1
-690.83 513.58 1753.1
-700.22 524.00 1788.6
-708.38 533.65 1821.6
-712.23 540.15 1843.7
-712.51 544.01 1856.9
-717.54 551.58 1882.8
-718.35 555.99 1897.8
-724.18 564.36 1926.4
-1254.58 590.39 2033.2
-1253.21 592.23 2039.6
-1239.15 588.07 2025.2
-1132.54 544.40 1874.8
-1109.89 535.81 1845.3
-1083.37 525.27 1809.0
-1064.43 518.33 1785.1
-1058.46 517.68 1782.8
-1053.00 517.26 1781.4
-1047.53 516.84 1779.9
-1033.73 512.29 1764.3
-1020.47 507.97 1749.4
-1010.20 505.10 1739.5
-993.65 499.05 1718.7
-987.82 498.36 1716.3
-995.97 504.75 1738.3
-985.30 501.61 1727.5
-964.62 493.32 1698.9
-966.94 496.78 1710.8
-965.41 498.28 1716.0
-953.44 494.37 1702.6
-941.04 490.22 1688.2
-924.47 483.83 1666.3
-921.10 484.33 1668.0
-923.78 488.04 1680.7
-906.42 481.13 1657.0
-878.49 468.53 1613.6
-863.20 462.58 1593.1
-750.07 474.62 1634.5
-763.78 486.04 1673.9
-764.53 489.30 1685.1
-768.00 494.35 1702.5
-763.49 494.28 1702.3
-753.07 490.37 1688.8
-760.34 498.00 1715.0
-763.58 503.07 1732.5
-765.97 507.63 1748.2
-767.13 511.42 1761.3
-766.70 514.19 1770.8
-763.54 515.16 1774.2
-750.11 509.16 1753.5
-748.10 510.90 1759.5
-765.62 526.07 1811.7
-771.31 533.25 1836.5
-756.05 525.95 1811.3
-741.64 519.14 1787.9
-735.42 518.03 1784.0
-733.25 519.77 1790.0
-739.78 527.74 1817.5
-733.52 526.63 1813.6
-712.14 514.58 1772.2
-704.20 512.15 1763.8
-709.82 519.61 1789.5
-719.22 529.95 1825.1
-717.53 532.21 1832.9
-713.02 532.39 1833.5
-721.71 542.49 1868.3
-727.13 550.26 1895.0
-737.92 562.22 1936.2
-746.47 572.63 1972.1
-729.38 563.39 1940.2
-741.46 576.70 1986.1
-1273.58 593.98 2064.0
-1248.77 584.87 2032.4
-1239.28 582.88 2025.5
-1183.84 563.97 1959.8
-1123.83 540.02 1876.5
-1092.83 527.41 1832.7
-1074.87 521.01 1810.5
-1071.33 521.57 1812.4
-1067.77 522.13 1814.3
-1037.71 509.67 1771.1
-1010.74 498.63 1732.7
-1013.17 502.06 1744.6
-1008.74 502.11 1744.8
-989.31 494.65 1718.9
-986.85 495.66 1722.4
-981.98 495.45 1721.7
-967.53 490.39 1704.1
-962.21 489.93 1702.5
-952.61 487.28 1693.3
-954.90 490.71 1705.2
-955.24 493.17 1713.7
-936.26 485.63 1687.5
-932.84 486.13 1689.3
-942.97 493.72 1715.6
-930.18 489.33 1700.4
-906.32 479.05 1664.7
-885.38 470.22 1634.0
-752.12 471.67 1639.0
-767.03 483.75 1681.0
-769.37 488.00 1695.7
-768.05 489.97 1702.6
-757.21 485.84 1688.2
-744.85 480.69 1670.3
-749.41 486.46 1690.4
-756.62 494.03 1716.7
-763.32 501.35 1742.1
-764.50 505.11 1755.2
-762.92 507.09 1762.1
-763.23 510.35 1773.4
-752.83 506.45 1759.9
-737.96 499.47 1735.6
-743.13 506.06 1758.5
-752.68 515.73 1792.1
-740.86 510.78 1774.9
-725.41 503.26 1748.8
-718.18 501.37 1742.2
-719.04 505.15 1755.3
-729.30 515.62 1791.7
-734.32 522.50 1815.6
-724.10 518.55 1801.9
-719.67 518.73 1802.5
-729.84 529.49 1839.9
-731.69 534.33 1856.7
-721.14 530.11 1842.1
-708.20 524.07 1821.1
-708.23 527.61 1833.4
-719.96 539.97 1876.3
-739.06 558.06 1939.2
-755.81 574.62 1996.8
-746.14 571.18 1984.8
-732.46 564.61 1962.0
-741.38 575.47 1999.7
-1259.07 584.38 2049.1
-1222.67 569.89 1998.3
-1224.37 573.11 2009.6
-1239.13 582.50 2042.5
-1217.09 574.59 2014.8
-1175.63 557.41 1954.6
-1128.71 539.82 1892.9
-1095.26 526.11 1844.8
-1077.81 520.00 1823.4
-1091.47 528.91 1854.6
-1075.55 523.50 1835.7
-1041.60 509.23 1785.6
-1040.03 510.73 1790.9
-1031.14 508.63 1783.5
-1007.26 499.09 1750.1
-992.68 494.10 1732.5
-977.69 488.84 1714.1
-963.72 484.06 1697.4
-959.37 484.09 1697.5
-942.65 477.84 1675.5
-937.86 477.61 1674.8
-956.69 489.47 1716.3
-953.70 490.22 1719.0
-945.54 488.31 1712.2
-951.42 493.66 1731.0
-949.76 495.14 1736.2
-933.25 488.84 1714.1
-907.57 477.67 1674.9
-876.99 463.79 1626.3
-747.99 462.24 1620.9
-757.40 470.70 1650.5
-766.27 478.92 1679.3
-763.81 480.11 1683.5
-757.35 478.79 1678.9
-758.44 482.24 1691.0
-759.07 485.45 1702.2
-764.75 491.95 1725.0
-773.45 500.47 1754.9
-776.97 505.72 1773.3
-774.22 506.93 1777.5
-760.30 500.79 1756.0
-747.62 495.41 1737.1
-749.47 499.65 1752.0
-747.10 501.10 1757.1
-739.42 499.00 1749.7
-737.02 500.45 1754.8
-730.87 499.35 1751.0
-720.66 495.45 1737.3
-716.40 495.62 1737.9
-721.66 502.42 1761.7
-725.72 508.47 1782.9
-724.25 510.69 1790.7
-719.85 510.86 1791.3
-722.61 516.15 1809.9
-729.57 524.52 1839.2
-728.23 527.01 1848.0
-724.39 527.70 1850.4
-717.38 526.08 1844.7
-703.08 519.05 1820.1
-699.62 519.99 1823.3
-717.83 537.15 1883.5
-733.70 552.78 1938.3
-737.75 559.67 1962.5
-740.34 565.54 1983.1
-745.52 573.48 2010.9
-1229.88 568.04 2010.1
-1218.42 565.14 1999.8
-1206.99 562.23 1989.5
-1126.13 529.09 1872.3
-1110.51 524.01 1854.3
-1107.89 525.04 1858.0
-1092.85 520.18 1840.7
-1069.47 511.28 1809.3
-1077.25 517.27 1830.5
-1072.18 517.11 1829.9
-1048.51 507.94 1797.4
-1042.03 507.06 1794.3
-1028.27 502.61 1778.6
-1010.69 496.24 1756.0
-1003.34 494.86 1751.1
-997.45 494.19 1748.8
-993.96 494.71 1750.6
-976.12 488.06 1727.1
-945.53 474.94 1680.7
-923.65 466.10 1649.4
-927.42 470.18 1663.8
-949.50 483.62 1711.4
-963.40 493.01 1744.6
-957.07 492.08 1741.3
-944.68 488.01 1726.9
-938.85 487.31 1724.4
-920.08 479.85 1698.0
-899.57 471.41 1668.2
-883.31 465.12 1645.9
-754.78 459.62 1626.4
-762.63 467.00 1652.6
-776.01 477.88 1691.1
-782.39 484.55 1714.6
-775.45 483.00 1709.2
-768.54 481.44 1703.7
-769.18 484.63 1714.9
-760.69 482.07 1705.9
-756.56 482.25 1706.5
-761.79 488.44 1728.4
-761.49 491.14 1738.0
-771.57 500.60 1771.5
-770.35 502.80 1779.3
-755.70 496.21 1755.9
-755.24 498.91 1765.5
-757.38 503.38 1781.3
-753.79 504.07 1783.7
-744.57 500.98 1772.8
-731.67 495.36 1752.9
-728.50 496.29 1756.2
-731.94 501.77 1775.6
-734.19 506.50 1792.3
-735.63 510.73 1807.3
-727.94 508.62 1799.8
-717.39 504.49 1785.2
-716.59 507.19 1794.8
-721.08 513.71 1817.9
-726.19 520.75 1842.8
-729.05 526.27 1862.3
-718.86 522.37 1848.5
-700.72 512.60 1813.9
-700.74 516.08 1826.2
-724.45 537.18 1900.9
-739.61 552.18 1954.0
-742.96 558.50 1976.3
-749.24 567.14 2006.9
-759.75 579.11 2049.3
-1279.69 583.15 2082.7
-1238.11 566.59 2023.6
-1219.03 560.24 2000.8
-1201.04 554.33 1979.7
-1140.39 528.59 1887.8
-1096.13 510.27 1822.4
-1086.59 508.02 1814.3
-1090.53 512.07 1828.8
-1097.38 517.54 1848.4
-1093.27 517.86 1849.5
-1083.72 515.60 1841.4
-1062.90 507.94 1814.1
-1047.58 502.84 1795.8
-1048.42 505.49 1805.3
-1029.29 498.49 1780.3
-1007.34 490.06 1750.2
-1001.45 489.39 1747.8
-999.41 490.62 1752.2
-980.56 483.57 1727.0
-947.95 469.63 1677.2
-947.45 471.54 1684.1
-954.51 477.26 1704.5
-932.64 468.49 1673.2
-931.15 469.93 1678.3
-950.76 482.08 1721.7
-949.62 483.77 1727.7
-941.92 482.12 1721.9
-941.21 484.05 1728.7
-923.34 477.13 1704.1
-902.35 468.53 1673.3
-901.69 470.44 1680.2
-760.92 459.10 1639.7
-766.71 465.20 1661.4
-777.66 474.50 1694.7
-779.61 478.40 1708.6
-783.50 483.53 1726.9
-789.30 489.91 1749.7
-783.10 488.87 1746.0
-767.05 481.63 1720.1
-763.27 482.07 1721.7
-768.87 488.46 1744.5
-759.98 485.67 1734.5
-761.96 489.83 1749.4
-771.95 499.23 1782.9
-768.39 499.92 1785.4
-764.82 500.61 1787.9
-762.36 502.04 1793.0
-756.49 501.23 1790.1
-745.38 496.92 1774.7
-731.73 490.85 1753.0
-728.18 491.52 1755.4
-731.63 496.95 1774.8
-734.99 502.40 1794.3
-734.60 505.33 1804.8
-724.74 501.74 1791.9
-719.62 501.41 1790.7
-724.90 508.37 1815.6
-731.86 516.61 1845.0
-739.74 525.61 1877.2
-729.13 521.50 1862.5
-704.91 507.54 1812.6
-702.88 509.47 1819.5
-721.95 526.83 1881.5
-739.01 542.95 1939.1
-746.90 552.50 1973.2
-751.91 560.05 2000.2
-758.83 569.12 2032.6
-1277.77 576.88 2079.6
-1258.54 570.61 2056.9
-1260.65 574.00 2069.2
-1240.50 567.24 2044.8
-1137.30 524.53 1890.8
-1135.12 525.79 1895.4
-1121.47 521.73 1880.7
-1112.83 519.97 1874.4
-1102.23 517.28 1864.7
-1086.25 512.02 1845.7
-1067.87 505.58 1822.5
-1054.97 501.70 1808.5
-1059.70 506.20 1824.7
-1043.93 500.90 1805.6
-1017.55 490.44 1768.0
-1008.73 488.39 1760.5
-998.00 485.39 1749.7
-969.55 473.71 1707.6
-939.83 461.29 1662.9
-943.17 465.07 1676.5
-966.88 478.96 1726.6
-958.67 477.11 1719.9
-936.35 468.17 1687.7
-936.23 470.31 1695.4
-938.88 473.87 1708.2
-934.02 473.65 1707.4
-931.48 474.61 1710.9
-911.33 466.57 1681.9
-890.38 458.03 1651.1
-891.60 460.87 1661.4
-892.77 463.72 1671.6
-774.73 460.53 1660.1
-779.31 465.84 1679.3
-775.67 466.28 1680.8
-774.05 467.93 1686.8
-774.01 470.56 1696.3
-776.33 474.67 1711.1
-784.96 482.70 1740.1
-781.16 483.14 1741.6
-777.35 483.58 1743.2
-786.49 492.13 1774.0
-780.25 491.10 1770.3
-759.63 480.95 1733.7
-765.88 487.79 1758.4
-781.63 500.81 1805.3
-775.34 499.77 1801.6
-767.92 497.99 1795.1
-767.73 500.90 1805.6
-764.85 502.08 1809.9
-758.19 500.78 1805.2
-750.06 498.49 1796.9
-750.87 502.14 1810.1
-758.63 510.53 1840.3
-749.73 507.73 1830.3
-736.49 501.94 1809.4
-734.96 504.11 1817.2
-739.17 510.27 1839.4
-740.05 514.19 1853.6
-741.93 518.86 1870.4
-756.51 532.54 1919.7
-752.15 532.98 1921.3
-730.24 520.90 1877.8
-731.55 525.34 1893.7
-728.27 526.52 1898.0
-719.80 523.93 1888.7
-735.70 539.17 1943.6
-749.63 553.18 1994.1
-753.86 560.16 2019.3
-756.96 566.39 2041.7
-1258.14 565.10 2056.3
-1235.95 557.49 2028.6
-1200.58 548.54 1996.0
-1116.55 514.58 1872.5
-1111.90 514.68 1872.8
-1104.27 513.39 1868.1
-1080.38 504.49 1835.8
-1055.13 494.88 1800.8
-1035.40 487.79 1775.0
-1035.32 489.93 1782.8
-1035.69 492.30 1791.4
-1022.92 488.42 1777.3
-1005.86 482.45 1755.5
-986.94 475.53 1730.4
-975.33 472.08 1717.8
-961.37 467.45 1701.0
-956.06 467.01 1699.4
-971.65 476.83 1735.1
-978.58 482.46 1755.6
-969.38 480.16 1747.2
-961.15 478.32 1740.5
-956.23 478.11 1739.8
-935.91 470.17 1710.9
-918.02 463.38 1686.2
-913.66 463.39 1686.2
-906.53 461.98 1681.1
-898.04 459.87 1673.4
-890.04 457.98 1666.5
-884.79 457.50 1664.8
-781.62 457.74 1665.6
-792.39 466.63 1698.0
-798.94 473.11 1721.6
-794.81 473.31 1722.3
-786.22 470.84 1713.3
-778.07 468.61 1705.2
-779.17 471.95 1717.4
-785.80 478.70 1741.9
-779.61 477.68 1738.2
-772.26 475.93 1731.8
-788.51 488.78 1778.6
-789.30 492.15 1790.8
-773.30 485.03 1764.9
-784.90 495.23 1802.1
-796.33 505.45 1839.3
-784.60 501.01 1823.1
-770.65 495.08 1801.5
-763.99 493.80 1796.9
-773.21 502.82 1829.7
-780.77 510.87 1859.0
-760.94 500.99 1823.0
-749.81 496.75 1807.6
-761.65 507.77 1847.7
-756.41 507.46 1846.6
-745.32 503.21 1831.1
-745.56 506.60 1843.4
-738.16 504.80 1836.9
-727.18 500.53 1821.3
-730.57 506.15 1841.8
-747.00 520.93 1895.6
-750.47 526.82 1917.0
-736.98 520.80 1895.1
-734.07 522.22 1900.3
-725.57 519.67 1891.0
-716.43 516.61 1879.8
-732.01 531.46 1933.9
-747.01 546.09 1987.1
-753.63 554.75 2018.6
-757.40 561.43 2042.9
-1271.47 565.70 2078.1
-1237.06 552.73 2030.4
-1204.85 540.64 1986.0
-1209.57 545.09 2002.4
-1122.24 510.11 1873.9
-1080.69 493.36 1812.3
-1078.65 494.58 1816.8
-1093.43 503.55 1849.8
-1089.80 504.09 1851.8
-1076.82 500.29 1837.8
-1069.77 499.22 1833.9
-1058.82 496.32 1823.2
-1049.86 494.33 1815.9
-1035.09 489.57 1798.4
-1017.01 483.19 1775.0
-999.01 476.80 1751.5
-988.80 474.08 1741.5
-981.97 472.97 1737.4
-983.26 475.77 1747.7
-995.44 483.90 1777.6
-998.50 487.64 1791.3
-993.48 487.45 1790.6
-988.92 487.50 1790.8
-968.43 479.65 1762.0
-934.06 464.81 1707.5
-916.64 458.32 1683.6
-913.21 458.79 1685.3
-913.47 461.12 1693.9
-911.38 462.30 1698.2
-913.40 465.57 1710.3
-915.83 469.08 1723.2
-907.28 466.98 1715.5
-788.65 457.50 1680.6
-795.29 463.92 1704.2
-793.24 465.31 1709.3
-792.80 467.66 1718.0
-787.06 466.90 1715.1
-788.97 470.69 1729.1
-800.45 480.27 1764.3
-794.22 479.27 1760.6
-772.90 469.10 1723.2
-759.64 463.74 1703.5
-769.68 472.61 1736.1
-788.17 486.81 1788.3
-790.08 490.88 1803.2
-798.12 498.83 1832.4
-805.64 506.54 1860.8
-791.94 500.93 1840.1
-775.28 493.36 1812.3
-759.87 486.50 1787.2
-760.81 490.09 1800.3
-776.33 503.18 1848.4
-765.11 498.99 1833.0
-742.07 486.98 1788.9
-741.76 489.84 1799.4
-752.06 499.79 1836.0
-756.35 505.84 1858.2
-745.99 502.11 1844.5
-727.01 492.49 1809.2
-709.99 484.08 1778.3
-708.47 486.20 1786.1
-724.33 500.36 1838.1
-726.87 505.44 1856.7
-714.58 500.20 1837.5
-714.24 503.32 1848.9
-723.91 513.59 1886.6
-734.10 524.36 1926.2
-741.02 532.92 1957.7
-745.74 540.02 1983.7
-751.02 547.62 2011.7
-752.79 552.75 2030.5
-754.82 558.14 2050.3
-1228.69 546.08 2025.3
-1211.67 540.83 2005.8
-1120.79 504.60 1871.5
-1093.20 494.32 1833.3
-1085.15 492.82 1827.8
-1095.95 499.91 1854.1
-1091.33 499.99 1854.4
-1078.34 496.23 1840.4
-1065.88 492.67 1827.2
-1049.07 487.07 1806.4
-1045.02 487.36 1807.5
-1035.12 484.92 1798.5
-1024.30 482.02 1787.7
-1013.51 479.11 1776.9
-1013.33 481.22 1784.7
-1015.04 484.24 1795.9
-995.69 477.20 1769.8
-988.81 476.09 1765.7
-992.37 480.03 1780.3
-987.37 479.84 1779.6
-975.78 476.44 1767.0
-948.77 465.44 1726.2
-928.93 457.86 1698.1
-926.41 458.79 1701.6
-927.59 461.57 1711.9
-931.48 465.74 1727.3
-918.75 461.60 1712.0
-911.58 460.22 1706.8
-912.19 462.77 1716.3
-900.48 459.07 1702.6
-795.59 454.62 1686.1
-803.11 461.45 1711.4
-798.19 461.17 1710.4
-787.13 457.33 1696.1
-776.14 453.48 1681.8
-785.46 461.51 1711.7
-803.52 474.81 1761.0
-816.14 485.02 1798.8
-810.23 484.27 1796.1
-781.67 469.90 1742.8
-760.06 459.57 1704.5
-757.51 460.71 1708.7
-762.38 466.39 1729.8
-772.21 475.21 1762.4
-788.49 488.11 1810.3
-791.05 492.63 1827.1
-771.66 483.45 1793.0
-765.40 482.44 1789.3
-761.06 482.62 1789.9
-752.55 480.15 1780.8
-758.35 486.84 1805.6
-767.79 495.96 1839.4
-765.91 497.84 1846.4
-758.82 496.33 1840.8
-762.42 501.84 1861.2
-752.75 498.64 1849.3
-726.41 484.27 1796.1
-722.00 484.44 1796.7
-720.10 486.30 1803.6
-712.09 484.04 1795.2
-721.19 493.44 1830.1
-725.88 499.94 1854.2
-715.34 495.97 1839.4
-712.20 497.11 1843.7
-719.81 505.81 1876.0
-726.93 514.29 1907.4
-729.43 519.59 1927.1
-726.72 521.24 1933.2
-722.29 521.65 1934.7
-732.34 532.61 1975.3
-743.87 544.80 2020.6
-1251.53 550.89 2063.0
-1253.59 554.16 2075.2
-1221.44 542.28 2030.7
-1129.67 505.90 1894.5
-1110.56 499.51 1870.6
-1116.32 504.30 1888.5
-1106.69 502.16 1880.5
-1076.89 490.80 1837.9
-1049.22 480.31 1798.7
-1031.49 474.30 1776.2
-1027.00 474.36 1776.4
-1037.58 481.40 1802.7
-1044.66 486.88 1823.3
-1021.25 478.13 1790.5
-1009.99 475.02 1778.8
-1018.90 481.41 1802.8
-1005.26 477.15 1786.8
-993.59 473.80 1774.3
-993.35 475.88 1782.1
-982.67 472.97 1771.2
-965.92 467.09 1749.2
-938.00 455.72 1706.6
-918.19 448.21 1678.5
-928.28 455.30 1705.0
-942.44 464.45 1739.3
-943.51 467.22 1749.6
-926.59 461.06 1726.6
-918.01 459.01 1718.9
-918.14 461.31 1727.5
-904.13 456.50 1709.5
-804.21 452.65 1695.1
-815.10 461.29 1727.4
-814.27 463.37 1735.2
-804.78 460.51 1724.5
-787.56 453.18 1697.1
-778.60 450.54 1687.2
-791.97 460.86 1725.8
-806.78 472.15 1768.1
-816.58 480.62 1799.8
-817.06 483.66 1811.2
-794.42 472.98 1771.2
-773.14 462.99 1733.8
-770.52 464.12 1738.0
-759.66 460.26 1723.6
-753.14 459.02 1718.9
-764.10 468.47 1754.3
-760.62 469.12 1756.8
-758.27 470.49 1761.9
-770.03 480.69 1800.1
-759.20 476.81 1785.6
-744.27 470.31 1761.2
-747.87 475.50 1780.6
-755.12 483.09 1809.1
-761.13 489.98 1834.9
-762.94 494.23 1850.8
-748.86 488.18 1828.1
-719.87 472.27 1768.6
-713.36 474.04 1775.2
-725.55 485.27 1817.2
-730.75 491.94 1842.2
-743.30 503.68 1886.2
-751.41 512.55 1919.4
-753.38 517.32 1937.3
-763.31 527.66 1976.0
-749.42 521.56 1953.1
-733.91 514.23 1925.7
-731.56 516.10 1932.7
-723.38 513.85 1924.3
-723.38 517.42 1937.6
-739.16 532.41 1993.8
-741.95 538.18 2015.4
-753.63 550.52 2061.6
-1267.31 554.79 2097.9
-1219.51 536.16 2027.5
-1149.20 509.64 1927.2
-1121.55 499.55 1889.1
-1120.34 501.20 1895.3
-1115.15 501.08 1894.8
-1088.76 491.39 1858.2
-1066.93 483.67 1829.0
-1056.47 481.07 1819.2
-1040.68 476.01 1800.0
-1039.55 477.63 1806.2
-1051.47 485.30 1835.2
-1030.93 477.98 1807.5
-1013.37 471.98 1784.8
-1016.53 475.62 1798.6
-1004.33 472.08 1785.2
-993.13 468.98 1773.5
-990.05 469.70 1776.2
-976.55 465.46 1760.1
-954.16 456.92 1727.9
-920.64 442.95 1675.0
-909.30 439.57 1662.2
-929.68 451.56 1707.6
-946.62 461.99 1747.0
-950.92 466.32 1763.4
-937.65 462.03 1747.2
-932.70 461.82 1746.4
-923.18 459.34 1737.0
-899.58 449.79 1700.9
-893.81 449.11 1698.3
-819.65 456.85 1727.6
-818.02 458.45 1733.6
-804.38 453.30 1714.1
-780.13 442.07 1671.7
-788.80 449.48 1699.7
-809.17 463.68 1753.4
-812.26 468.08 1770.1
-817.30 473.66 1791.2
-808.19 471.06 1781.3
-789.12 462.59 1749.3
-787.29 464.18 1755.3
-787.02 466.72 1764.9
-789.85 471.14 1781.6
-783.59 470.16 1777.9
-772.28 466.11 1762.6
-779.65 473.36 1790.0
-770.68 470.72 1780.0
-762.91 468.78 1772.7
-775.42 479.35 1812.7
-766.08 476.46 1801.8
-746.57 467.18 1766.6
-745.28 469.25 1774.5
-753.67 477.48 1805.6
-761.18 485.25 1835.0
-756.33 485.20 1834.8
-734.55 474.20 1793.2
-715.88 465.09 1758.8
-711.56 465.25 1759.4
-724.98 477.09 1804.1
-743.60 492.51 1862.4
-743.69 495.79 1874.8
-750.13 503.37 1903.5
-755.72 510.49 1930.4
-754.51 513.06 1940.2
-763.74 522.83 1977.1
-748.80 516.07 1951.5
-726.02 503.77 1905.0
-716.17 500.34 1892.0
-726.87 511.32 1933.5
-749.94 531.20 2008.8
-743.64 530.43 2005.8
-721.59 518.32 1960.0
-712.74 515.60 1949.7
-713.54 519.86 1965.9
-738.60 542.00 2049.6
-1254.29 543.70 2076.4
-1207.02 525.47 2006.7
-1171.04 512.01 1955.4
-1153.75 506.65 1934.9
-1138.52 502.14 1917.7
-1113.43 493.23 1883.6
-1086.99 483.64 1847.0
-1074.98 480.41 1834.7
-1065.97 478.50 1827.4
-1066.29 480.78 1836.1
-1060.22 480.19 1833.8
-1033.73 470.30 1796.1
-1020.96 466.59 1781.9
-1024.67 470.42 1796.5
-1028.80 474.47 1812.0
-1022.30 473.64 1808.8
-1000.52 465.68 1778.4
-977.91 457.26 1746.3
-963.01 452.39 1727.7
-965.68 455.77 1740.5
-958.87 454.68 1736.4
-950.20 452.69 1728.8
-964.94 461.89 1763.9
-961.37 462.37 1765.8
-954.53 461.28 1761.6
-958.34 465.35 1777.1
-944.57 460.88 1760.1
-928.58 455.28 1738.7
-908.10 447.41 1708.6
-890.02 440.64 1682.8
-890.18 442.90 1691.4
-893.02 446.51 1705.2
-841.80 462.07 1764.6
-838.02 462.51 1766.3
-830.50 460.88 1760.1
-808.94 451.40 1723.9
-794.53 445.82 1702.6
-816.66 460.80 1759.8
-837.32 475.11 1814.4
-839.88 479.25 1830.3
-828.64 475.53 1816.0
-802.59 463.21 1769.0
-787.14 456.90 1744.9
-789.71 461.04 1760.7
-787.05 462.16 1765.0
-786.73 464.68 1774.6
-794.61 472.09 1802.9
-797.67 476.71 1820.5
-800.26 481.11 1837.3
-786.94 475.94 1817.6
-781.39 475.42 1815.6
-796.49 487.55 1861.9
-786.28 484.23 1849.3
-765.52 474.34 1811.5
-756.98 471.94 1802.3
-757.45 475.17 1814.7
-764.20 482.40 1842.3
-758.60 481.88 1840.3
-751.53 480.41 1834.7
-747.78 481.06 1837.1
-729.08 472.03 1802.7
-727.92 474.32 1811.4
-747.62 490.32 1872.5
-748.40 494.04 1886.7
-754.11 501.08 1913.6
-757.92 506.95 1936.0
-738.38 497.18 1898.7
-729.16 494.26 1887.6
-739.48 504.64 1927.2
-742.00 509.81 1946.9
-725.86 502.14 1917.6
-729.67 508.25 1941.0
-738.13 517.72 1977.1
-715.02 505.02 1928.6
-705.89 502.08 1917.4
-710.14 508.68 1942.6
-715.60 516.25 1971.5
-1261.44 541.39 2088.2
-1215.13 523.76 2020.2
-1181.62 511.53 1973.0
-1167.79 507.74 1958.4
-1138.07 496.97 1916.9
-1099.56 482.26 1860.2
-1089.98 480.17 1852.1
-1093.75 483.96 1866.7
-1074.84 477.71 1842.6
-1067.29 476.47 1837.8
-1079.78 484.21 1867.7
-1069.27 481.66 1857.8
-1052.01 476.02 1836.1
-1052.72 478.51 1845.7
-1040.37 475.06 1832.4
-1018.00 466.97 1801.2
-1008.66 464.82 1792.9
-996.49 461.34 1779.5
-987.22 459.17 1771.1
-995.49 465.18 1794.3
-982.45 461.24 1779.1
-967.11 456.18 1759.6
-987.42 467.97 1805.0
-989.35 471.12 1817.2
-975.90 466.94 1801.1
-973.16 467.87 1804.6
-957.03 462.33 1783.3
-938.23 455.45 1756.7
-922.28 449.89 1735.3
-907.78 444.99 1716.4
-900.16 443.43 1710.4
-895.28 443.21 1709.5
-904.36 449.93 1735.4
-828.32 447.74 1727.0
-837.21 455.00 1755.0
-832.62 454.98 1754.9
-823.87 452.67 1746.0
-820.94 453.56 1749.4
-826.65 459.25 1771.4
-839.63 469.07 1809.3
-850.00 477.53 1841.9
-838.70 473.84 1827.7
-812.92 461.89 1781.6
-797.79 455.88 1758.4
-793.96 456.30 1760.0
-799.68 462.25 1782.9
-800.55 465.43 1795.2
-784.39 458.71 1769.3
-776.59 456.82 1762.0
-784.82 464.39 1791.2
-792.54 471.75 1819.6
-789.30 472.63 1823.0
-794.12 478.38 1845.2
-799.98 484.84 1870.1
-779.85 475.52 1834.2
-759.12 465.72 1796.3
-751.36 463.80 1789.0
-748.50 464.91 1793.2
-751.95 469.97 1812.7
-762.35 479.47 1849.4
-772.59 488.98 1886.1
-760.66 484.50 1868.8
-733.86 470.42 1814.5
-726.15 468.48 1807.0
-739.02 479.88 1851.0
-751.32 491.06 1894.1
-770.21 506.71 1954.5
-771.45 510.89 1970.6
-748.30 498.87 1924.2
-733.42 492.23 1898.6
-737.80 498.51 1922.8
-754.87 513.52 1980.7
-753.10 515.82 1989.6
-749.57 516.95 1993.9
-750.78 521.37 2011.0
-731.97 511.87 1974.4
-725.42 510.86 1970.5
-728.89 516.94 1993.9
-734.23 524.45 2022.9
-1277.71 540.57 2106.1
-1253.44 532.58 2075.0
-1227.78 523.93 2041.3
-1215.80 521.06 2030.1
-1188.85 511.72 1993.7
-1148.07 496.33 1933.8
-1111.51 482.63 1880.4
-1104.86 481.85 1877.4
-1108.58 485.62 1892.0
-1089.13 479.21 1867.1
-1073.19 474.31 1848.0
-1079.81 479.38 1867.7
-1086.83 484.67 1888.3
-1085.03 486.05 1893.7
-1070.15 481.57 1876.2
-1042.80 471.40 1836.6
-1024.73 465.36 1813.1
-1019.20 464.98 1811.6
-1006.51 461.32 1797.3
-996.73 458.96 1788.2
-999.76 462.51 1802.0
-981.51 456.19 1777.4
-963.35 449.87 1752.7
-980.88 460.22 1793.1
-994.03 468.62 1825.8
-991.72 469.76 1830.2
-979.20 466.06 1815.8
-953.35 455.95 1776.4
-943.29 453.33 1766.2
-934.64 451.36 1758.5
-923.73 448.28 1746.6
-919.23 448.29 1746.6
-910.65 446.31 1738.9
-916.08 451.20 1757.9
-921.86 456.32 1777.9
-907.90 451.67 1759.7
-824.62 436.56 1700.9
-821.42 437.21 1703.4
-830.01 444.17 1730.5
-838.48 451.14 1757.7
-832.21 450.21 1754.1
-838.43 456.07 1776.9
-851.16 465.55 1813.8
-842.32 463.27 1805.0
-840.48 464.84 1811.1
-840.65 467.55 1821.6
-819.24 458.22 1785.3
-802.43 451.37 1758.6
-797.81 451.33 1758.4
-790.78 449.93 1753.0
-794.13 454.44 1770.6
-806.92 464.45 1809.5
-802.96 464.87 1811.2
-786.03 457.75 1783.4
-786.02 460.45 1794.0
-797.23 469.80 1830.4
-797.45 472.74 1841.9
-788.39 470.18 1831.9
-779.74 467.84 1822.8
-770.37 465.04 1811.8
-760.67 462.00 1800.0
-756.66 462.41 1801.6
-757.90 466.04 1815.7
-761.68 471.29 1836.2
-772.41 480.93 1873.8
-774.48 485.28 1890.7
-753.37 475.05 1850.9
-731.34 464.12 1808.2
-728.72 465.44 1813.4
-741.94 476.96 1858.3
-754.24 488.04 1901.5
-767.06 499.60 1946.5
-762.30 499.78 1947.2
-731.79 482.98 1881.8
-709.29 471.27 1836.1
-716.61 479.35 1867.6
-737.63 496.77 1935.5
-736.30 499.27 1945.2
-733.91 501.08 1952.3
-746.77 513.41 2000.3
-739.82 512.18 1995.5
-732.21 510.48 1988.9
-733.30 514.87 2006.0
-725.02 512.70 1997.5
-733.92 522.72 2036.6
-1251.94 524.32 2063.6
-1258.07 529.14 2082.6
-1262.10 533.13 2098.3
-1212.92 516.81 2034.1
-1171.55 501.36 1973.3
-1133.90 487.38 1918.3
-1108.85 478.71 1884.1
-1096.76 475.59 1871.8
-1095.54 477.17 1878.1
-1095.77 479.40 1886.9
-1082.76 475.83 1872.8
-1071.27 472.90 1861.3
-1066.13 472.76 1860.7
-1047.43 466.58 1836.4
-1031.73 461.69 1817.1
-1023.30 460.02 1810.6
-1024.95 462.88 1821.8
-1017.97 461.86 1817.8
-993.41 452.81 1782.2
-983.67 450.46 1773.0
-986.23 453.76 1785.9
-989.21 457.28 1799.8
-983.23 456.66 1797.4
-973.52 454.31 1788.1
-974.53 456.96 1798.5
-965.31 454.81 1790.1
-947.36 448.51 1765.3
-944.21 449.19 1767.9
-930.97 445.05 1751.7
-915.52 439.81 1731.0
-913.78 441.13 1736.2
-908.39 440.70 1734.5
-907.96 442.69 1742.4
-908.40 445.12 1751.9
-904.77 445.56 1753.7
-842.90 441.73 1738.6
-840.05 442.61 1742.0
-839.29 444.59 1749.9
-837.65 446.14 1755.9
-828.04 443.43 1745.3
-830.13 446.99 1759.3
-858.23 464.67 1828.9
-863.77 470.27 1850.9
-840.50 460.16 1811.1
-819.03 450.93 1774.8
-813.16 450.23 1772.0
-812.56 452.45 1780.8
-813.12 455.35 1792.2
-812.82 457.80 1801.8
-805.31 456.19 1795.5
-808.53 460.67 1813.1
-807.33 462.68 1821.0
-793.52 457.44 1800.4
-783.31 454.23 1787.8
-784.43 457.59 1801.0
-784.72 460.49 1812.4
-775.71 457.95 1802.4
-775.18 460.41 1812.1
-774.21 462.64 1820.9
-770.93 463.50 1824.3
-774.03 468.24 1842.9
-765.43 465.91 1833.8
-757.24 463.81 1825.5
-769.48 474.27 1866.7
-773.79 479.95 1889.0
-760.01 474.40 1867.2
-745.60 468.39 1843.5
-737.82 466.49 1836.1
-745.23 474.24 1866.5
-751.06 481.07 1893.4
-756.06 487.46 1918.6
-759.87 493.16 1941.0
-738.19 482.28 1898.2
-706.87 464.92 1829.9
-706.19 467.61 1840.5
-722.44 481.63 1895.6
-715.70 480.40 1890.8
-715.82 483.80 1904.2
-731.19 497.62 1958.6
-739.89 507.05 1995.7
-749.41 517.20 2035.6
-752.74 523.18 2059.2
-746.00 522.20 2055.3
-738.62 520.75 2049.6
-1266.72 525.09 2088.0
-1235.00 518.60 2062.2
-1214.98 512.40 2037.5
-1181.08 500.28 1989.3
-1141.39 485.59 1930.9
-1116.80 477.22 1897.6
-1107.15 475.19 1889.6
-1107.38 477.40 1898.4
-1097.27 475.16 1889.4
-1072.02 466.31 1854.2
-1058.12 462.33 1838.4
-1051.08 461.34 1834.5
-1054.22 464.82 1848.3
-1059.71 469.37 1866.4
-1036.28 461.10 1833.5
-1024.00 457.73 1820.1
-1024.66 460.15 1829.7
-1005.77 453.77 1804.4
-1002.14 454.24 1806.3
-1010.78 460.31 1830.4
-994.86 455.19 1810.1
-970.11 445.97 1773.4
-948.30 438.03 1741.8
-938.72 435.67 1732.4
-949.10 442.61 1760.0
-950.13 445.23 1770.4
-946.97 445.90 1773.1
-931.89 440.94 1753.4
-909.12 432.28 1718.9
-900.59 430.33 1711.2
-894.34 429.46 1707.7
-893.98 431.42 1715.5
-902.11 437.52 1739.8
-905.21 441.24 1754.5
-900.68 441.24 1754.6
-897.03 441.68 1756.3
-889.39 440.16 1750.3
-898.50 446.95 1777.3
-853.68 433.54 1724.0
-869.44 443.87 1765.0
-882.88 453.12 1801.8
-882.05 455.10 1809.7
-874.81 453.78 1804.4
-873.09 455.32 1810.6
-873.03 457.75 1820.2
-860.33 453.54 1803.5
-838.91 444.67 1768.2
-816.82 435.34 1731.1
-820.97 439.97 1749.5
-841.12 453.27 1802.4
-831.08 450.36 1790.8
-816.19 444.78 1768.6
-816.43 447.42 1779.1
-818.24 450.96 1793.2
-820.38 454.73 1808.2
-815.25 454.48 1807.2
-804.13 450.87 1792.9
-797.44 449.72 1788.3
-786.81 446.32 1774.8
-774.28 441.79 1756.8
-765.34 439.28 1746.8
-769.67 444.39 1767.1
-773.13 449.06 1785.7
-763.41 446.09 1773.8
-762.94 448.52 1783.5
-779.19 460.86 1832.6
-794.09 472.55 1879.1
-782.74 468.68 1863.7
-758.33 456.88 1816.8
-759.13 460.22 1830.0
-779.54 475.57 1891.1
-797.09 489.35 1945.9
-765.35 475.89 1892.3
-735.67 460.39 1830.7
-749.60 472.15 1877.5
-761.16 482.57 1918.9
-753.97 481.15 1913.3
-745.02 478.59 1903.1
-751.29 485.83 1931.9
-749.70 488.06 1940.7
-722.97 473.84 1884.2
-712.43 470.11 1869.3
-711.26 472.55 1879.1
-716.55 479.35 1906.1
-728.87 490.97 1952.3
-733.86 497.79 1979.4
-735.70 502.56 1998.4
-731.10 502.96 2000.0
-1262.25 520.07 2089.6
-1235.53 511.25 2054.1
-1221.50 507.64 2039.6
-1205.02 502.96 2020.8
-1189.61 498.70 2003.7
-1167.79 491.70 1975.6
-1141.61 482.80 1939.8
-1131.39 480.59 1930.9
-1123.16 479.22 1925.4
-1104.16 473.21 1901.3
-1079.37 464.66 1866.9
-1065.93 460.94 1852.0
-1068.10 463.97 1864.2
-1080.86 471.65 1895.0
-1086.27 476.17 1913.2
-1060.82 467.15 1876.9
-1027.84 454.71 1827.0
-1009.86 448.83 1803.3
-991.97 442.93 1779.6
-989.34 443.82 1783.2
-1004.65 452.80 1819.3
-993.45 449.86 1807.5
-971.98 442.23 1776.8
-954.36 436.28 1752.9
-936.38 430.11 1728.1
-939.82 433.76 1742.8
-956.59 443.63 1782.5
-968.59 451.38 1813.6
-954.34 446.91 1795.6
-932.39 438.77 1762.9
-930.59 440.08 1768.2
-930.12 442.04 1776.0
-920.13 439.47 1765.7
-920.53 441.85 1775.3
-919.54 443.59 1782.3
-909.15 440.80 1771.1
-897.02 437.13 1756.3
-880.98 431.50 1733.7
-882.64 434.53 1745.9
-881.82 443.22 1780.8
-885.40 447.36 1797.4
-890.19 452.16 1816.7
-881.64 450.20 1808.8
-877.80 450.64 1810.6
-878.61 453.48 1822.0
-876.00 454.57 1826.4
-860.34 448.87 1803.5
-837.66 439.43 1765.6
-815.15 429.97 1727.5
-804.81 426.86 1715.1
-811.43 432.76 1738.8
-819.60 439.56 1766.1
-822.32 443.50 1781.9
-810.33 439.50 1765.9
-799.22 435.94 1751.5
-813.15 446.07 1792.2
-818.47 451.57 1814.3
-803.35 445.79 1791.1
-791.89 441.99 1775.8
-787.61 442.17 1776.6
-781.75 441.46 1773.7
-777.47 441.64 1774.4
-786.81 449.60 1806.4
-796.00 457.58 1838.5
-791.94 457.99 1840.1
-775.60 451.26 1813.1
-775.40 453.89 1823.7
-791.85 466.36 1873.8
-782.40 463.64 1862.9
-770.37 459.35 1845.6
-783.05 469.83 1887.7
-775.12 468.00 1880.4
-762.05 463.02 1860.3
-784.70 479.82 1927.8
-773.79 476.18 1913.2
-738.24 457.24 1837.1
-744.94 464.38 1865.8
-757.97 475.59 1910.9
-753.30 475.77 1911.6
-747.19 475.04 1908.6
-756.28 484.02 1944.7
-773.27 498.22 2001.8
-765.92 496.82 1996.1
-737.79 481.82 1935.9
-718.89 472.69 1899.2
-731.68 484.42 1946.3
-751.40 500.93 2012.7
-739.00 496.11 1993.3
-722.64 488.55 1962.9
-727.15 495.08 1989.2
-1280.04 519.67 2110.0
-1243.59 507.04 2058.7
-1222.47 500.58 2032.4
-1212.00 498.44 2023.7
-1192.04 492.36 1999.1
-1173.17 486.68 1976.0
-1153.38 480.58 1951.2
-1131.22 473.42 1922.1
-1136.35 477.67 1939.4
-1143.39 482.77 1960.1
-1137.08 482.24 1958.0
-1123.43 478.59 1943.2
-1086.42 464.91 1887.6
-1067.62 458.93 1863.3
-1083.79 468.00 1900.1
-1091.60 473.52 1922.6
-1066.12 464.59 1886.3
-1031.67 451.65 1833.8
-1020.36 448.77 1822.1
-1009.57 446.09 1811.2
-985.07 437.30 1775.5
-979.60 436.91 1773.9
-989.21 443.28 1799.8
-988.85 445.22 1807.7
-981.45 443.99 1802.7
-974.07 442.76 1797.7
-967.17 441.74 1793.5
-973.68 446.86 1814.3
-985.63 454.54 1845.5
-970.84 449.90 1826.7
-941.06 438.24 1779.3
-932.40 436.34 1771.6
-941.89 442.97 1798.5
-941.80 445.13 1807.3
-931.31 442.37 1796.1
-919.98 439.19 1783.2
-914.94 438.99 1782.4
-907.68 437.71 1777.2
-885.83 429.36 1743.3
-881.31 429.36 1743.3
-890.83 436.23 1771.2
-894.11 440.11 1786.9
-893.84 442.26 1795.7
-883.56 439.47 1784.3
-875.91 437.96 1778.2
-870.87 437.74 1777.3
-867.10 438.16 1779.0
-869.29 441.62 1793.0
-868.45 443.56 1800.9
-864.19 443.77 1801.8
-869.59 448.98 1822.9
-868.63 450.93 1830.8
-829.72 433.09 1758.4
-803.97 421.97 1713.3
-815.56 430.43 1747.6
-828.22 439.56 1784.7
-829.28 442.59 1797.0
-816.44 438.20 1779.2
-810.16 437.30 1775.5
-828.88 449.96 1826.9
-833.73 455.20 1848.2
-816.93 448.60 1821.4
-804.21 444.19 1803.5
-798.69 443.72 1801.6
-799.47 446.76 1813.9
-802.53 451.13 1831.6
-801.23 453.08 1839.6
-798.73 454.37 1844.8
-800.45 458.09 1859.9
-790.58 455.18 1848.1
-774.28 448.51 1821.0
-774.03 451.12 1831.6
-775.25 454.62 1845.8
-774.52 457.02 1855.6
-774.50 459.86 1867.1
-753.23 450.04 1827.2
-729.56 438.66 1781.0
-739.16 447.26 1816.0
-752.63 458.33 1860.9
-744.08 456.05 1851.6
-751.12 463.35 1881.3
-763.41 474.01 1924.6
-761.56 475.97 1932.5
-758.96 477.49 1938.7
-742.90 470.51 1910.3
-732.24 466.87 1895.5
-742.24 476.44 1934.4
-732.97 473.69 1923.3
-728.58 474.08 1924.8
-758.13 496.70 2016.7
-755.99 502.23 2039.1
-750.29 501.96 2038.0
-734.42 505.58 2052.7
-1227.44 495.19 2031.9
-1209.39 490.01 2010.7
-1197.45 487.28 1999.5
-1173.52 479.61 1968.0
-1158.20 475.42 1950.8
-1140.96 470.39 1930.2
-1127.76 467.00 1916.3
-1140.83 474.50 1947.0
-1143.91 477.90 1961.0
-1134.16 475.94 1953.0
-1142.07 481.41 1975.4
-1123.53 475.73 1952.1
-1087.56 462.58 1898.1
-1088.65 465.15 1908.7
-1079.54 463.36 1901.3
-1037.25 447.25 1835.2
-1022.56 442.95 1817.6
-1029.91 448.20 1839.1
-1018.13 445.14 1826.6
-993.59 436.44 1790.8
-999.91 441.28 1810.7
-1021.70 453.02 1858.9
-1007.15 448.68 1841.1
-985.65 441.20 1810.4
-980.58 441.03 1809.7
-976.44 441.28 1810.7
-970.90 440.89 1809.1
-970.89 443.03 1817.9
-967.17 443.48 1819.8
-947.90 436.78 1792.3
-925.56 428.58 1758.6
-922.39 429.23 1761.3
-923.27 431.78 1771.7
-913.76 429.47 1762.3
-914.60 432.02 1772.7
-922.97 438.18 1798.0
-919.23 438.62 1799.8
-901.76 432.47 1774.6
-886.15 427.17 1752.8
-884.68 428.66 1758.9
-877.49 427.38 1753.7
-866.84 424.39 1741.4
-870.55 428.44 1758.0
-877.20 433.98 1780.8
-873.01 434.20 1781.7
-870.95 435.48 1786.9
-876.11 440.40 1807.1
-878.21 443.83 1821.2
-865.88 439.96 1805.3
-863.72 441.25 1810.6
-880.36 452.21 1855.6
-858.88 443.60 1820.2
-831.33 431.74 1771.6
-842.39 439.91 1805.1
-845.90 444.22 1822.8
-837.06 442.04 1813.8
-833.14 442.46 1815.6
-835.28 446.12 1830.6
-846.64 454.77 1866.1
-844.59 456.27 1872.2
-825.73 448.66 1841.0
-810.58 442.99 1817.8
-810.17 445.36 1827.5
-816.40 451.42 1852.3
-815.08 453.36 1860.3
-810.21 453.33 1860.2
-806.51 453.96 1862.8
-805.87 456.34 1872.5
-794.05 452.37 1856.2
-775.82 444.68 1824.7
-778.61 449.01 1842.5
-782.45 454.01 1863.0
-768.91 448.93 1842.1
-754.71 443.39 1819.4
-745.44 440.70 1808.3
-734.00 436.68 1791.9
-738.44 442.13 1814.2
-746.07 449.56 1844.7
-736.11 446.41 1831.8
-740.66 452.09 1855.1
-760.21 467.06 1916.5
-765.53 473.42 1942.6
-771.80 480.46 1971.5
-764.85 479.31 1966.8
-744.92 469.95 1928.4
-744.03 472.56 1939.1
-752.11 480.94 1973.5
-766.93 493.78 2026.1
-756.13 490.18 2011.4
-729.02 475.88 1952.7
-728.26 478.72 1964.3
-741.94 491.14 2015.3
-1248.24 498.23 2066.4
-1220.53 489.26 2029.2
-1198.49 482.51 2001.2
-1166.52 471.68 1956.3
-1143.22 464.28 1925.6
-1138.97 464.58 1926.8
-1137.70 466.10 1933.2
-1145.79 471.50 1955.5
-1143.44 472.62 1960.2
-1118.94 464.56 1926.7
-1113.67 464.45 1926.3
-1111.83 465.76 1931.7
-1090.97 459.10 1904.1
-1080.41 456.72 1894.2
-1060.70 450.44 1868.2
-1027.13 438.18 1817.3
-1020.15 437.21 1813.3
-1029.43 443.23 1838.3
-1020.03 441.22 1830.0
-1003.07 435.91 1807.9
-1018.35 444.63 1844.1
-1033.48 453.37 1880.3
-1010.43 445.36 1847.1
-974.42 431.53 1789.7
-954.94 424.93 1762.4
-960.64 429.52 1781.4
-964.88 433.50 1797.9
-951.07 429.37 1780.8
-935.50 424.40 1760.2
-937.37 427.33 1772.3
-935.56 428.60 1777.6
-933.71 429.88 1782.9
-937.27 433.66 1798.6
-929.50 432.22 1792.6
-931.62 435.38 1805.7
-927.87 435.82 1807.5
-912.55 430.80 1786.7
-907.50 430.60 1785.9
-904.65 431.45 1789.4
-900.47 431.67 1790.3
-889.29 428.52 1777.3
-882.50 427.46 1772.9
-890.92 433.80 1799.2
-897.49 439.30 1822.0
-893.21 439.52 1822.9
-883.79 437.19 1813.2
-881.65 438.47 1818.5
-877.79 438.89 1820.3
-859.12 431.88 1791.2
-843.94 426.56 1769.1
-846.86 430.37 1785.0
-843.04 430.79 1786.7
-833.82 428.42 1776.9
-847.35 437.80 1815.7
-852.49 442.91 1837.0
-844.84 441.40 1830.7
-840.88 441.82 1832.4
-828.81 437.95 1816.4
-825.67 438.79 1819.8
-828.95 443.06 1837.6
-815.35 438.31 1817.9
-804.23 434.84 1803.5
-808.20 439.55 1823.0
-808.54 442.32 1834.5
-801.38 441.00 1829.0
-798.53 442.05 1833.4
-798.38 444.61 1844.0
-798.94 447.60 1856.4
