ply
format ascii 1.0
element vertex 2082
property float x
property float y
property float z
end_header
-331.71 -134.76 1332.7
-326.31 -133.96 1324.8
-319.29 -132.47 1310.2
-313.98 -131.67 1302.2
-317.02 -134.39 1329.1
-316.73 -135.74 1342.5
-313.42 -135.82 1343.2
-314.14 -137.66 1361.5
-308.58 -136.75 1352.5
-297.79 -133.49 1320.3
-291.72 -132.29 1308.4
-287.84 -132.07 1306.2
-286.51 -133.02 1315.6
-288.06 -135.36 1338.7
-286.40 -136.21 1347.2
-282.03 -135.79 1343.0
-280.31 -136.65 1351.5
-276.95 -136.72 1352.2
-273.18 -136.59 1350.9
-267.67 -135.57 1340.8
-266.44 -136.73 1352.2
-268.95 -139.85 1383.2
-263.80 -139.03 1375.0
-257.96 -137.81 1363.0
-255.27 -138.27 1367.5
-252.38 -138.63 1371.1
-248.58 -138.50 1369.8
-246.90 -139.55 1380.2
-245.50 -140.80 1392.5
-243.87 -141.95 1403.9
-239.16 -141.32 1397.7
-231.66 -139.00 1374.7
-221.19 -134.79 1333.1
-213.97 -132.46 1310.0
-218.88 -137.68 1361.7
-222.27 -142.11 1405.5
-218.87 -142.26 1407.0
-220.12 -145.50 1439.0
-222.09 -149.34 1476.9
-212.38 -145.31 1437.1
-199.01 -138.59 1370.7
-197.21 -139.84 1383.0
-200.18 -144.57 1429.8
-195.73 -144.02 1424.4
-189.84 -142.38 1408.1
-187.69 -143.52 1419.5
-187.39 -146.17 1445.6
-187.59 -149.31 1476.7
-184.80 -150.15 1485.0
-181.61 -150.70 1490.4
-180.98 -153.44 1517.6
-181.25 -157.09 1553.6
-180.66 -160.13 1583.7
-178.15 -161.58 1598.0
-174.70 -162.22 1604.4
-174.06 -165.57 1637.5
-173.24 -168.91 1670.6
-168.36 -168.36 1665.1
-165.64 -170.00 1681.3
-165.22 -174.15 1722.4
-162.27 -175.79 1738.6
-157.17 -175.13 1732.1
-153.06 -175.57 1736.4
-153.85 -181.83 1798.3
-156.13 -190.29 1882.0
-149.93 -188.62 1865.5
-140.11 -182.14 1801.4
-140.31 -188.70 1866.2
-592.25 -163.38 1575.4
-556.00 -155.53 1499.7
-535.04 -150.72 1453.3
-505.40 -143.38 1382.6
-494.76 -141.36 1363.1
-489.94 -140.99 1359.6
-474.75 -137.61 1326.9
-465.03 -135.77 1309.2
-471.27 -138.61 1336.6
-481.33 -142.62 1375.2
-477.50 -142.54 1374.5
-467.50 -140.60 1355.8
-469.18 -142.18 1371.0
-470.15 -143.56 1384.3
-463.75 -142.69 1376.0
-457.38 -141.82 1367.6
-459.20 -143.50 1383.8
-455.96 -143.61 1384.8
-435.10 -138.13 1331.9
-427.37 -136.76 1318.7
-433.71 -139.91 1349.1
-435.07 -141.49 1364.3
-428.55 -140.51 1354.9
-417.91 -138.15 1332.2
-412.10 -137.37 1324.6
-415.71 -139.73 1347.4
-421.24 -142.79 1376.9
-419.99 -143.59 1384.6
-412.40 -142.21 1371.3
-393.21 -136.77 1318.9
-377.09 -132.31 1275.9
-372.37 -131.81 1271.0
-365.16 -130.42 1257.6
-367.10 -132.29 1275.7
-376.32 -136.85 1319.6
-372.88 -136.84 1319.5
-365.42 -135.34 1305.1
-368.39 -137.72 1328.0
-371.78 -140.30 1352.8
-356.49 -135.81 1309.6
-336.49 -129.42 1248.0
-332.70 -129.20 1245.9
-331.20 -129.88 1252.5
-331.69 -131.36 1266.7
-337.85 -135.14 1303.2
-336.66 -136.02 1311.7
-339.35 -138.51 1335.6
-340.21 -140.29 1352.8
-331.14 -137.98 1330.5
-327.65 -137.96 1330.3
-323.22 -137.54 1326.3
-317.17 -136.42 1315.4
-319.48 -138.90 1339.4
-312.53 -137.38 1324.7
-302.95 -134.64 1298.3
-309.82 -139.24 1342.7
-309.83 -140.83 1358.0
-300.13 -137.99 1330.6
-294.67 -137.06 1321.6
-289.05 -136.02 1311.7
-286.23 -136.30 1314.3
-287.57 -138.59 1336.4
-285.71 -139.37 1343.9
-279.92 -138.23 1332.9
-277.01 -138.50 1335.6
-274.28 -138.88 1339.2
-271.14 -139.05 1340.8
-269.75 -140.13 1351.2
-273.10 -143.74 1386.1
-274.58 -146.44 1412.1
-268.24 -144.99 1398.1
-262.70 -143.95 1388.0
-259.95 -144.42 1392.6
-258.62 -145.70 1405.0
-256.87 -146.78 1415.4
-250.51 -145.22 1400.4
-244.74 -143.97 1388.3
-241.42 -144.13 1389.8
-235.40 -142.67 1375.7
-228.13 -140.39 1353.8
-218.37 -136.48 1316.0
-211.51 -134.29 1295.0
-217.40 -140.26 1352.5
-220.81 -144.80 1396.3
-217.13 -144.75 1395.8
-217.50 -147.46 1421.9
-218.33 -150.58 1452.0
-214.50 -150.53 1451.5
-206.67 -147.62 1423.5
-198.00 -144.00 1388.6
-194.19 -143.85 1387.1
-192.70 -145.43 1402.4
-189.79 -145.99 1407.8
-190.11 -149.11 1437.8
-192.33 -153.86 1483.7
-187.17 -152.79 1473.3
-178.98 -149.15 1438.3
-179.28 -152.58 1471.3
-182.23 -158.46 1528.0
-180.17 -160.15 1544.3
-177.23 -161.12 1553.6
-177.44 -165.06 1591.7
-176.48 -168.08 1620.8
-171.80 -167.61 1616.3
-166.94 -166.94 1609.8
-165.11 -169.34 1633.0
-165.60 -174.31 1680.9
-167.64 -181.24 1747.6
-167.22 -185.80 1791.6
-161.62 -184.71 1781.2
-157.13 -184.86 1782.6
-156.44 -189.63 1828.5
-156.92 -196.14 1891.4
-153.64 -198.24 1911.6
-147.17 -196.22 1892.2
-142.96 -197.19 1901.5
-142.88 -204.12 1968.3
-594.21 -168.02 1580.7
-585.39 -166.67 1568.0
-590.12 -169.19 1591.7
-571.35 -164.97 1552.0
-543.20 -157.95 1486.0
-531.65 -155.70 1464.7
-525.92 -155.13 1459.4
-506.81 -150.57 1416.6
-495.22 -148.20 1394.3
-490.68 -147.93 1391.6
-490.09 -148.84 1400.3
-489.46 -149.76 1408.9
-483.28 -148.98 1401.6
-480.34 -149.20 1403.6
-475.80 -148.91 1400.9
-469.67 -148.13 1393.5
-463.58 -147.34 1386.1
-452.19 -144.84 1362.6
-435.94 -140.74 1324.0
-433.14 -140.94 1325.9
-443.52 -145.48 1368.6
-438.48 -144.98 1363.9
-429.22 -143.07 1346.0
-424.85 -142.78 1343.2
-416.02 -140.96 1326.1
-413.77 -141.37 1330.0
-421.76 -145.31 1367.1
-418.52 -145.42 1368.0
-408.05 -142.99 1345.2
-405.14 -143.19 1347.1
-389.99 -139.04 1308.0
-376.15 -135.28 1272.7
-373.67 -135.58 1275.5
-364.52 -133.44 1255.4
-364.26 -134.55 1265.8
-371.32 -138.40 1302.0
-365.49 -137.48 1293.3
-358.62 -136.14 1280.8
-361.65 -138.58 1303.7
-369.05 -142.75 1342.9
-356.93 -139.37 1311.2
-337.70 -133.13 1252.5
-334.92 -133.32 1254.2
-334.94 -134.63 1266.6
-336.40 -136.56 1284.7
-342.51 -140.43 1321.1
-340.53 -141.03 1326.8
-331.18 -138.55 1303.5
-321.21 -135.77 1277.3
-318.09 -135.85 1278.0
-320.19 -138.19 1300.0
-322.66 -140.74 1324.0
-323.85 -142.77 1343.2
-323.55 -144.19 1356.5
-314.74 -141.81 1334.1
-300.61 -136.94 1288.3
-303.48 -139.80 1315.2
-313.95 -146.27 1376.1
-314.06 -148.00 1392.4
-305.21 -145.50 1368.9
-296.25 -142.90 1344.3
-289.96 -141.53 1331.5
-288.55 -142.53 1340.9
-291.01 -145.51 1368.9
-289.45 -146.51 1378.3
-284.81 -145.97 1373.2
-280.20 -145.42 1368.0
-270.48 -142.18 1337.5
-262.28 -139.65 1313.8
-266.30 -143.66 1351.5
-268.43 -146.74 1380.5
-265.73 -147.23 1385.1
-263.56 -148.03 1392.6
-260.07 -148.09 1393.2
-258.37 -149.20 1403.6
-260.53 -152.60 1435.6
-258.15 -153.39 1443.1
-247.79 -149.40 1405.5
-240.68 -147.28 1385.6
-236.18 -146.72 1380.3
-230.55 -145.42 1368.1
-228.40 -146.32 1376.5
-229.57 -149.41 1405.6
-226.97 -150.09 1412.0
-220.91 -148.48 1396.9
-215.69 -147.39 1386.6
-214.74 -149.22 1403.9
-215.91 -152.63 1435.9
-212.12 -152.58 1435.4
-208.48 -152.63 1435.9
-203.56 -151.75 1427.6
-196.07 -148.87 1400.5
-191.02 -147.77 1390.2
-184.69 -145.62 1370.0
-181.33 -145.78 1371.4
-182.82 -149.91 1410.3
-176.96 -148.07 1393.0
-170.83 -145.92 1372.7
-173.34 -151.21 1422.5
-180.77 -161.12 1515.8
-183.12 -166.84 1569.6
-179.21 -166.99 1571.0
-178.05 -169.77 1597.2
-172.89 -168.77 1587.7
-163.98 -163.98 1542.7
-166.38 -170.54 1604.4
-172.27 -181.10 1703.8
-169.94 -183.36 1725.0
-169.02 -187.30 1762.0
-169.67 -193.24 1817.9
-165.27 -193.60 1821.3
-157.96 -190.48 1792.0
-154.11 -191.47 1801.3
-152.93 -195.94 1843.3
-147.78 -195.45 1838.7
-144.12 -196.97 1853.0
-143.00 -202.17 1901.9
-143.13 -209.59 1971.7
-572.93 -169.46 1556.3
-558.10 -166.24 1526.7
-557.99 -167.40 1537.3
-536.92 -162.24 1489.9
-504.34 -153.49 1409.6
-500.76 -153.52 1409.9
-504.45 -155.79 1430.7
-494.24 -153.76 1412.1
-484.77 -151.94 1395.4
-476.67 -150.53 1382.4
-471.53 -150.03 1377.8
-468.32 -150.15 1378.9
-463.52 -149.75 1375.3
-460.31 -149.87 1376.3
-451.77 -148.24 1361.4
-445.47 -147.32 1353.0
-452.80 -150.93 1386.1
-452.00 -151.87 1394.7
-436.54 -147.86 1357.9
-427.30 -145.91 1340.0
-423.24 -145.71 1338.1
-418.29 -145.19 1333.4
-420.75 -147.26 1352.4
-424.30 -149.75 1375.3
-416.09 -148.10 1360.1
-401.60 -144.16 1323.9
-394.44 -142.81 1311.5
-389.89 -142.39 1307.7
-386.21 -142.29 1306.7
-383.64 -142.59 1309.5
-374.41 -140.40 1289.4
-363.62 -137.59 1263.5
-359.77 -137.37 1261.5
-358.36 -138.08 1268.1
-355.31 -138.18 1269.0
-360.76 -141.61 1300.5
-368.43 -145.98 1340.7
-361.80 -144.72 1329.1
-347.19 -140.21 1287.7
-343.82 -140.20 1287.5
-344.00 -141.65 1300.8
-337.32 -140.27 1288.2
-335.43 -140.88 1293.8
-331.79 -140.76 1292.7
-321.05 -137.59 1263.6
-314.33 -136.10 1249.9
-313.92 -137.34 1261.3
-318.21 -140.68 1292.0
-323.05 -144.34 1325.6
-322.60 -145.69 1338.0
-320.24 -146.20 1342.6
-317.63 -146.60 1346.3
-310.70 -144.99 1331.6
-304.07 -143.49 1317.8
-304.80 -145.47 1336.0
-308.50 -148.93 1367.8
-303.61 -148.27 1361.7
-294.89 -145.71 1338.2
-289.25 -144.63 1328.2
-289.10 -146.29 1343.5
-292.17 -149.65 1374.3
-290.40 -150.58 1382.8
-285.75 -150.02 1377.7
-279.32 -148.50 1363.8
-267.25 -143.91 1321.6
-258.90 -141.22 1296.9
-261.43 -144.47 1326.8
-269.50 -150.92 1386.0
-272.59 -154.71 1420.8
-268.29 -154.36 1417.6
-263.10 -153.47 1409.5
-259.56 -153.55 1410.1
-260.11 -156.07 1433.3
-258.08 -157.09 1442.7
-248.07 -153.22 1407.1
-241.63 -151.47 1391.1
-238.30 -151.64 1392.6
-234.95 -151.81 1394.2
-235.34 -154.44 1418.3
-236.40 -157.60 1447.4
-234.01 -158.52 1455.8
-223.49 -153.88 1413.2
-213.80 -149.66 1374.4
-213.03 -151.65 1392.7
-214.67 -155.45 1427.6
-213.23 -157.11 1442.9
-211.56 -158.67 1457.2
-205.62 -157.02 1442.0
-197.12 -153.32 1408.0
-192.32 -152.41 1399.7
-186.23 -150.42 1381.4
-182.06 -149.93 1376.9
-183.15 -153.85 1412.9
-183.31 -157.12 1442.9
-182.94 -160.07 1470.0
-179.78 -160.66 1475.4
-182.02 -166.19 1526.2
-183.87 -171.62 1576.1
-179.28 -171.13 1571.6
-179.11 -174.94 1606.6
-174.67 -174.67 1604.1
-164.25 -168.26 1545.2
-165.21 -173.47 1593.1
-173.22 -186.55 1713.2
-172.82 -191.01 1754.2
-170.69 -193.75 1779.4
-169.99 -198.33 1821.4
-166.03 -199.24 1829.7
-158.97 -196.37 1803.4
-154.92 -197.17 1810.7
-153.30 -201.20 1847.8
-149.57 -202.65 1861.0
-147.55 -206.57 1897.1
-146.24 -211.79 1945.0
-573.82 -173.76 1558.7
-562.40 -171.51 1538.5
-560.91 -172.28 1545.4
-536.11 -165.85 1487.7
-503.54 -156.90 1407.4
-501.30 -157.34 1411.4
-492.09 -155.59 1395.6
-469.48 -149.54 1341.4
-474.53 -152.28 1365.9
-480.44 -155.33 1393.3
-469.15 -152.83 1370.9
-460.21 -151.06 1355.0
-449.75 -148.76 1334.4
-441.27 -147.09 1319.4
-446.96 -150.15 1346.9
-453.76 -153.63 1378.1
-457.32 -156.07 1400.0
-452.19 -155.55 1395.3
-440.39 -152.72 1369.9
-435.05 -152.09 1364.3
-428.23 -150.93 1353.9
-420.87 -149.56 1341.6
-424.78 -152.21 1365.4
-429.76 -155.29 1393.0
-423.54 -154.34 1384.5
-410.44 -150.85 1353.1
-407.51 -151.06 1355.0
-407.12 -152.23 1365.5
-394.84 -148.93 1335.9
-383.82 -146.06 1310.1
-376.25 -144.45 1295.8
-367.10 -142.21 1275.6
-365.67 -142.95 1282.2
-367.46 -144.96 1300.3
-361.12 -143.78 1289.7
-362.26 -145.58 1305.9
-372.02 -150.92 1353.7
-366.66 -150.16 1346.9
-353.83 -146.30 1312.3
-353.99 -147.78 1325.6
-351.54 -148.20 1329.3
-341.51 -145.40 1304.2
-334.10 -143.66 1288.7
-325.77 -141.50 1269.2
-321.70 -141.15 1266.2
-321.04 -142.32 1276.6
-321.28 -143.91 1290.9
-325.73 -147.44 1322.5
-330.03 -150.97 1354.2
-328.57 -151.92 1362.7
-323.84 -151.36 1357.7
-318.45 -150.48 1349.8
-314.00 -150.02 1345.7
-309.13 -149.35 1339.7
-306.04 -149.54 1341.4
-305.80 -151.14 1355.7
-304.83 -152.41 1367.2
-300.59 -152.06 1364.0
-294.04 -150.52 1350.2
-293.20 -151.90 1362.6
-292.92 -153.61 1377.9
-287.46 -152.60 1368.8
-287.08 -154.31 1384.1
-284.24 -154.71 1387.8
-278.61 -153.59 1377.7
-276.34 -154.32 1384.3
-268.47 -151.90 1362.5
-265.82 -152.40 1367.1
-271.21 -157.59 1413.6
-269.51 -158.76 1424.1
-262.48 -156.76 1406.1
-257.33 -155.85 1398.0
-254.54 -156.36 1402.5
-249.26 -155.34 1393.4
-242.48 -153.33 1375.4
-239.36 -153.62 1378.0
-238.90 -155.65 1396.2
-238.69 -157.90 1416.4
-236.09 -158.62 1422.9
-234.26 -159.89 1434.2
-233.63 -162.03 1453.5
-224.98 -158.60 1422.6
-216.03 -154.83 1388.8
-215.52 -157.08 1409.0
-217.71 -161.41 1447.9
-216.80 -163.55 1467.1
-213.65 -164.05 1471.5
-205.98 -161.04 1444.5
-199.55 -158.90 1425.4
-197.00 -159.83 1433.7
-192.69 -159.34 1429.3
-190.87 -160.93 1443.6
-192.17 -165.27 1482.5
-192.27 -168.73 1513.5
-190.99 -171.09 1534.7
-186.83 -170.93 1533.2
-184.08 -172.08 1543.6
-180.94 -172.90 1550.9
-175.73 -171.74 1540.5
-175.09 -175.09 1570.6
-175.59 -179.77 1612.5
-170.30 -178.61 1602.1
-164.96 -177.33 1590.7
-166.38 -183.44 1645.5
-166.63 -188.56 1691.4
-165.13 -191.91 1721.5
-164.13 -196.04 1758.5
-159.70 -196.20 1759.9
-158.92 -200.99 1802.9
-161.31 -210.20 1885.5
-160.98 -216.31 1940.4
-142.77 -219.25 1966.7
-585.70 -181.48 1590.9
-571.47 -178.33 1563.3
-567.55 -178.37 1563.7
-555.87 -175.96 1542.5
-532.89 -169.91 1489.4
-527.13 -169.30 1484.1
-515.11 -166.65 1460.9
-480.85 -156.72 1373.9
-477.67 -156.85 1375.0
-481.94 -159.44 1397.7
-468.39 -156.13 1368.7
-458.49 -154.00 1350.0
-447.41 -151.43 1327.5
-443.36 -151.22 1325.7
-453.10 -155.75 1365.4
-460.17 -159.43 1397.6
-463.06 -161.70 1417.5
-452.07 -159.13 1395.0
-434.49 -154.17 1351.5
-428.89 -153.42 1345.0
-422.42 -152.35 1335.5
-422.54 -153.65 1346.9
-433.23 -158.85 1392.5
-424.95 -157.13 1377.4
-406.27 -151.49 1328.0
-406.87 -153.01 1341.3
-417.13 -158.22 1387.0
-410.70 -157.14 1377.5
-392.77 -151.59 1328.9
-387.63 -150.94 1323.2
-385.02 -151.26 1326.0
-378.00 -149.84 1313.5
-380.30 -152.12 1333.5
-379.53 -153.20 1343.0
-369.86 -150.69 1320.9
-361.37 -148.60 1302.7
-362.18 -150.34 1317.9
-363.96 -152.51 1337.0
-357.88 -151.41 1327.3
-355.43 -151.83 1331.0
-350.43 -151.16 1325.1
-339.91 -148.08 1298.1
-332.01 -146.09 1280.6
-329.14 -146.29 1282.4
-330.67 -148.46 1301.5
-328.71 -149.10 1307.1
-327.19 -149.96 1314.6
-330.63 -153.14 1342.4
-334.41 -156.53 1372.2
-331.28 -156.73 1374.0
-324.68 -155.28 1361.2
-321.33 -155.37 1362.0
-318.21 -155.57 1363.8
-320.88 -158.64 1390.7
-324.97 -162.49 1424.4
-315.33 -159.48 1398.0
-305.39 -156.25 1369.7
-303.29 -157.00 1376.3
-299.46 -156.86 1375.1
-294.38 -156.05 1368.0
-289.53 -155.36 1361.9
-283.70 -154.11 1351.0
-282.76 -155.52 1363.3
-284.95 -158.71 1391.3
-284.25 -160.34 1405.6
-281.52 -160.87 1410.2
-273.20 -158.17 1386.5
-265.56 -155.79 1365.7
-266.45 -158.43 1388.8
-264.08 -159.17 1395.3
-256.39 -156.68 1373.5
-251.69 -155.97 1367.3
-249.50 -156.83 1374.8
-246.04 -156.90 1375.4
-240.86 -155.85 1366.2
-240.48 -157.93 1384.4
-242.69 -161.79 1418.3
-241.26 -163.31 1431.7
-237.49 -163.27 1431.3
-233.87 -163.34 1431.9
-231.51 -164.30 1440.3
-222.90 -160.78 1409.5
-213.22 -156.36 1370.7
-211.71 -157.88 1384.0
-212.63 -161.30 1414.0
-212.67 -164.17 1439.1
-210.02 -165.01 1446.5
-207.88 -166.31 1457.9
-207.07 -168.72 1479.1
-199.79 -165.86 1454.0
-190.64 -161.31 1414.1
-190.69 -164.51 1442.2
-193.65 -170.41 1493.9
-191.47 -171.93 1507.2
-187.62 -171.99 1507.7
-185.21 -173.39 1520.0
-184.15 -176.14 1544.1
-181.93 -177.88 1559.4
-177.37 -177.37 1554.9
-173.72 -177.76 1558.3
-171.34 -179.50 1573.6
-168.99 -181.35 1589.8
-166.86 -183.54 1609.0
-164.93 -186.07 1631.2
-161.71 -187.25 1641.5
-159.30 -189.44 1660.7
-157.62 -192.64 1688.8
-154.71 -194.49 1705.0
-155.91 -201.76 1768.7
-159.06 -212.09 1859.2
-159.29 -219.02 1920.0
-155.22 -220.31 1931.3
-147.93 -216.96 1902.0
-142.65 -216.44 1897.4
-134.88 -211.96 1858.1
-130.02 -211.89 1857.4
-131.24 -222.10 1947.0
-589.67 -186.87 1601.7
-576.78 -184.08 1577.8
-575.88 -185.10 1586.6
-565.49 -183.07 1569.2
-541.12 -176.45 1512.5
-535.97 -176.05 1509.0
-542.40 -179.47 1538.3
-523.09 -174.36 1494.5
-505.93 -169.90 1456.3
-498.01 -168.50 1444.3
-474.38 -161.72 1386.2
-456.13 -156.69 1343.0
-449.83 -155.71 1334.7
-450.18 -157.04 1346.1
-457.05 -160.68 1377.3
-460.67 -163.23 1399.1
-465.10 -166.11 1423.8
-454.71 -163.70 1403.1
-441.98 -160.40 1374.8
-441.76 -161.62 1385.3
-429.50 -158.42 1357.9
-424.81 -157.99 1354.2
-438.73 -164.52 1410.2
-432.75 -163.64 1402.7
-414.88 -158.22 1356.2
-416.85 -160.33 1374.2
-414.16 -160.66 1377.1
-395.83 -154.89 1327.6
-385.62 -152.22 1304.7
-388.37 -154.66 1325.7
-389.63 -156.55 1341.8
-386.14 -156.54 1341.8
-380.47 -155.65 1334.1
-372.13 -153.63 1316.8
-361.19 -150.50 1290.0
-352.24 -148.14 1269.7
-354.18 -150.36 1288.8
-357.33 -153.14 1312.6
-352.86 -152.68 1308.7
-352.77 -154.12 1321.1
-357.44 -157.70 1351.7
-356.17 -158.69 1360.2
-347.38 -156.32 1339.9
-343.87 -156.31 1339.8
-340.61 -156.40 1340.6
-334.19 -155.04 1328.9
-330.22 -154.79 1326.8
-331.49 -157.02 1345.9
-330.08 -158.02 1354.4
-321.64 -155.63 1334.0
-319.05 -156.06 1337.6
-319.42 -157.95 1353.9
-317.67 -158.83 1361.4
-321.91 -162.76 1395.1
-320.68 -163.99 1405.6
-306.28 -158.42 1357.9
-297.52 -155.68 1334.4
-296.36 -156.90 1344.8
-291.97 -156.41 1340.7
-285.93 -155.02 1328.8
-287.80 -157.94 1353.8
-288.52 -160.29 1373.9
-286.92 -161.39 1383.4
-289.06 -164.65 1411.3
-284.36 -164.06 1406.2
-277.55 -162.20 1390.3
-274.46 -162.51 1392.9
-271.55 -162.93 1396.5
-266.93 -162.32 1391.4
-259.39 -159.90 1370.5
-253.04 -158.15 1355.5
-249.82 -158.33 1357.1
-249.60 -160.46 1375.4
-247.72 -161.56 1384.8
-250.10 -165.51 1418.6
-257.24 -172.77 1480.9
-251.33 -171.36 1468.8
-241.36 -167.09 1432.2
-239.04 -168.08 1440.7
-236.85 -169.18 1450.1
-235.23 -170.73 1463.4
-227.34 -167.71 1437.5
-214.54 -160.90 1379.2
-209.69 -159.93 1370.9
-212.42 -164.81 1412.6
-214.50 -169.34 1451.5
-212.95 -171.12 1466.8
-211.75 -173.25 1485.0
-211.00 -175.84 1507.2
-203.92 -173.14 1484.1
-195.63 -169.30 1451.1
-196.49 -173.38 1486.1
-195.77 -176.19 1510.2
-189.91 -174.41 1494.9
-185.48 -173.89 1490.5
-182.51 -174.75 1497.8
-183.39 -179.40 1537.7
-183.14 -183.14 1569.8
-178.33 -182.39 1563.3
-174.44 -182.56 1564.8
-171.72 -183.99 1577.0
-169.15 -185.65 1591.3
-166.81 -187.66 1608.5
-164.38 -189.67 1625.7
-162.54 -192.49 1649.9
-161.62 -196.57 1684.9
-158.40 -198.00 1697.2
-154.13 -198.16 1698.5
-151.42 -200.40 1717.7
-150.47 -205.18 1758.7
-151.36 -212.85 1824.4
-148.17 -215.09 1843.6
-141.03 -211.55 1813.3
-135.69 -210.55 1804.7
-135.06 -217.06 1860.5
-138.03 -230.05 1971.8
-593.35 -193.57 1623.1
-588.95 -193.51 1622.6
-576.12 -190.66 1598.7
-548.01 -182.67 1531.7
-523.85 -175.89 1474.9
-515.16 -174.25 1461.1
-513.10 -174.83 1466.0
-511.98 -175.76 1473.7
-515.04 -178.14 1493.7
-499.67 -174.13 1460.1
-478.06 -167.87 1407.6
-470.02 -166.31 1394.6
-462.03 -164.76 1381.5
-461.00 -165.67 1389.2
-463.03 -167.71 1406.3
-465.59 -169.98 1425.3
-460.41 -169.43 1420.7
-451.89 -167.64 1405.7
-447.07 -167.20 1402.0
-429.68 -162.01 1358.5
-420.53 -159.87 1340.5
-430.64 -165.08 1384.2
-435.56 -168.37 1411.8
-427.85 -166.79 1398.5
-427.99 -168.27 1410.9
-423.20 -167.82 1407.2
-403.10 -161.24 1352.0
-392.27 -158.28 1327.2
-397.20 -161.69 1355.8
-399.77 -164.19 1376.8
-389.60 -161.46 1353.8
-377.91 -158.03 1325.1
-371.48 -156.77 1314.6
-362.43 -154.37 1294.4
-355.33 -152.76 1280.9
-359.08 -155.83 1306.6
-367.41 -160.96 1349.7
-369.06 -163.24 1368.8
-360.87 -161.17 1351.4
-357.85 -161.38 1353.2
-363.37 -165.50 1387.7
-360.75 -165.94 1391.5
-351.93 -163.52 1371.1
-344.18 -161.56 1354.7
-339.18 -160.85 1348.7
-336.37 -161.18 1351.5
-335.91 -162.65 1363.9
-332.81 -162.86 1365.6
-328.30 -162.38 1361.6
-329.10 -164.55 1379.8
-326.40 -164.99 1383.5
-322.09 -164.62 1380.4
-316.24 -163.45 1370.5
-305.34 -159.61 1338.4
-299.64 -158.43 1328.4
-298.95 -159.90 1340.8
-300.76 -162.77 1364.8
-298.65 -163.55 1371.4
-290.24 -160.85 1348.8
-290.20 -162.79 1365.0
-293.75 -166.82 1398.8
-295.31 -169.80 1423.8
-291.17 -169.54 1421.6
-280.54 -165.45 1387.3
-277.66 -165.88 1390.9
-278.22 -168.40 1412.0
-273.56 -167.78 1406.9
-267.04 -166.00 1391.9
-265.22 -167.13 1401.4
-264.44 -168.95 1416.7
-252.80 -163.79 1373.4
-244.21 -160.48 1345.6
-250.62 -167.08 1401.0
-261.06 -176.60 1480.8
-262.10 -179.95 1508.9
-250.09 -174.30 1461.5
-238.32 -168.65 1414.2
-233.93 -168.14 1409.9
-231.81 -169.26 1419.3
-230.12 -170.73 1431.6
-227.12 -171.27 1436.1
-219.05 -167.94 1408.2
-215.49 -168.01 1408.7
-219.74 -174.28 1461.3
-221.99 -179.15 1502.2
-220.31 -180.97 1517.4
-216.03 -180.68 1515.0
-212.32 -180.86 1516.6
-207.24 -179.87 1508.2
-200.88 -177.70 1490.1
-198.78 -179.29 1503.4
-195.45 -179.82 1507.8
-190.23 -178.58 1497.4
-186.28 -178.52 1496.9
-182.10 -178.23 1494.4
-181.92 -181.92 1525.5
-184.47 -188.57 1581.1
-182.56 -190.86 1600.4
-173.95 -186.09 1560.3
-166.51 -182.37 1529.2
-169.20 -189.84 1591.8
-171.98 -197.78 1658.4
-168.23 -198.42 1663.8
-165.12 -199.89 1676.1
-164.04 -203.94 1710.1
-160.48 -205.05 1719.4
-153.90 -202.27 1696.1
-148.75 -201.26 1687.5
-147.97 -206.26 1729.5
-149.26 -214.56 1799.1
-149.16 -221.33 1855.9
-145.53 -223.15 1871.1
-139.44 -221.19 1854.7
-137.97 -226.66 1900.6
-569.57 -192.59 1580.5
-566.93 -193.09 1584.6
-564.61 -193.70 1589.6
-535.50 -185.06 1518.8
-516.89 -179.96 1476.8
-523.25 -183.53 1506.2
-532.07 -188.02 1543.0
-515.94 -183.70 1507.6
-493.26 -176.97 1452.3
-486.70 -175.96 1444.1
-480.81 -175.18 1437.6
-473.70 -173.93 1427.4
-470.66 -174.18 1429.5
-467.31 -174.31 1430.5
-455.68 -171.34 1406.1
-443.26 -168.01 1378.8
-433.67 -165.71 1359.9
-437.35 -168.49 1382.7
-447.76 -173.92 1427.3
-439.07 -171.97 1411.3
-425.77 -168.16 1380.1
-430.05 -171.29 1405.7
-441.71 -177.44 1456.2
-435.67 -176.52 1448.6
-413.77 -169.10 1387.8
-400.32 -165.04 1354.5
-403.23 -167.71 1376.4
-400.77 -168.18 1380.2
-385.65 -163.29 1340.1
-377.80 -161.42 1324.8
-375.43 -161.88 1328.5
-371.16 -161.52 1325.6
-368.50 -161.86 1328.4
-365.56 -162.09 1330.2
-367.04 -164.29 1348.3
-368.17 -166.39 1365.5
-358.97 -163.80 1344.3
-354.19 -163.21 1339.4
-358.49 -166.82 1369.0
-358.40 -168.45 1382.4
-351.58 -166.91 1369.8
-343.59 -164.78 1352.3
-338.36 -163.95 1345.5
-331.47 -162.28 1331.8
-327.50 -162.03 1329.7
-332.71 -166.36 1365.2
-335.65 -169.63 1392.1
-335.23 -171.26 1405.5
-331.77 -171.36 1406.3
-320.42 -167.33 1373.2
-308.11 -162.71 1335.3
-301.94 -161.26 1323.4
-300.86 -162.53 1333.9
-302.53 -165.34 1356.9
-306.66 -169.56 1391.6
-304.27 -170.25 1397.2
-295.79 -167.50 1374.6
-294.86 -169.00 1387.0
-297.54 -172.64 1416.8
-297.84 -174.98 1436.0
-292.28 -173.89 1427.0
-281.24 -169.47 1390.8
-278.16 -169.79 1393.4
-281.98 -174.38 1431.1
-280.11 -175.53 1440.6
-272.39 -173.00 1419.8
-269.20 -173.32 1422.4
-267.28 -174.47 1431.9
-254.34 -168.37 1381.7
-242.72 -162.97 1337.4
-245.83 -167.45 1374.2
-249.78 -172.64 1416.8
-244.35 -171.41 1406.7
-241.14 -171.72 1409.2
-238.08 -172.15 1412.8
-233.05 -171.15 1404.5
-230.46 -171.93 1411.0
-230.05 -174.39 1431.2
-228.29 -175.89 1443.5
-222.80 -174.53 1432.3
-221.88 -176.75 1450.5
-223.66 -181.24 1487.4
-223.22 -184.06 1510.5
-222.53 -186.76 1532.7
-219.33 -187.43 1538.2
-213.77 -186.06 1526.9
-206.64 -183.25 1503.8
-201.75 -182.35 1496.5
-201.19 -185.41 1521.6
-200.50 -188.47 1546.7
-197.80 -189.73 1557.1
-194.07 -190.03 1559.5
-190.33 -190.33 1562.0
-185.63 -189.67 1556.5
-183.72 -191.89 1574.7
-184.08 -196.63 1613.7
-177.97 -194.52 1596.4
-169.58 -189.77 1557.3
-171.57 -196.67 1614.0
-174.39 -204.91 1681.6
-170.97 -206.04 1690.9
-164.78 -203.81 1672.6
-160.29 -203.62 1671.0
-157.84 -206.08 1691.2
-152.69 -205.04 1682.7
-150.45 -207.98 1706.8
-152.66 -217.42 1784.3
-151.18 -222.05 1822.3
-148.08 -224.51 1842.5
-148.18 -232.15 1905.2
-146.55 -237.50 1949.1
-141.45 -237.43 1948.5
-555.46 -197.50 1587.0
-518.04 -188.38 1513.8
-503.02 -184.31 1481.1
-504.01 -186.10 1495.4
-496.11 -184.60 1483.4
-487.64 -182.86 1469.4
-476.12 -179.95 1446.0
-465.02 -177.15 1423.5
-461.06 -177.05 1422.7
-455.59 -176.36 1417.2
-454.36 -177.31 1424.8
-465.38 -183.10 1471.3
-463.98 -184.06 1479.0
-444.55 -177.82 1428.9
-433.26 -174.76 1404.3
-439.81 -178.90 1437.6
-448.50 -184.00 1478.6
-439.26 -181.76 1460.6
-419.61 -175.14 1407.4
-408.93 -172.18 1383.6
-400.04 -169.93 1365.5
-385.97 -165.42 1329.2
-384.99 -166.48 1337.8
-390.49 -170.40 1369.2
-383.15 -168.73 1355.8
-374.26 -166.34 1336.7
-368.13 -165.14 1327.0
-361.24 -163.58 1314.5
-364.85 -166.79 1340.3
-367.03 -169.40 1361.2
-360.41 -167.96 1349.6
-358.66 -168.78 1356.3
-362.91 -172.47 1385.9
-362.28 -173.89 1397.4
-352.71 -171.01 1374.2
-342.03 -167.52 1346.2
-338.98 -167.74 1347.9
-334.25 -167.13 1343.0
-323.84 -163.63 1314.9
-323.21 -165.04 1326.2
-327.87 -169.22 1359.8
-328.91 -171.60 1379.0
-325.07 -171.46 1377.8
-314.01 -167.47 1345.7
-305.56 -164.80 1324.2
-303.18 -165.37 1328.9
-306.89 -169.32 1360.6
-313.03 -174.71 1404.0
-310.41 -175.29 1408.6
-300.59 -171.76 1380.2
-290.48 -167.99 1349.9
-288.16 -168.68 1355.5
-290.31 -172.03 1382.4
-289.69 -173.81 1396.7
-292.79 -177.90 1429.5
-290.01 -178.47 1434.1
-280.02 -174.56 1402.7
-277.67 -175.37 1409.2
-275.86 -176.55 1418.7
-268.01 -173.84 1396.9
-263.03 -172.95 1389.8
-259.00 -172.67 1387.5
-258.58 -174.81 1404.7
-258.42 -177.20 1423.9
-253.09 -176.06 1414.8
-248.15 -175.17 1407.6
-242.74 -173.91 1397.5
-239.56 -174.22 1400.0
-237.84 -175.64 1411.4
-234.28 -175.71 1412.0
-231.51 -176.39 1417.4
-231.08 -178.90 1437.6
-229.92 -180.92 1453.9
-225.02 -180.02 1446.6
-222.11 -180.70 1452.0
-221.82 -183.58 1475.2
-219.82 -185.11 1487.5
-217.47 -186.40 1497.9
-216.18 -188.67 1516.1
-212.19 -188.61 1515.6
-205.63 -186.23 1496.5
-201.29 -185.81 1493.1
-199.57 -187.83 1509.3
-198.14 -190.22 1528.5
-193.99 -190.03 1527.0
-189.11 -189.11 1519.6
-187.87 -191.87 1541.8
-185.81 -193.89 1558.0
-182.28 -194.44 1562.4
-181.43 -197.93 1590.5
-181.21 -202.28 1625.5
-178.98 -204.55 1643.7
-171.09 -200.30 1609.6
-164.41 -197.29 1585.3
-165.33 -203.48 1635.1
-163.37 -206.36 1658.2
-158.73 -205.92 1654.7
-156.32 -208.43 1674.9
-153.09 -209.95 1687.1
-153.02 -216.03 1735.9
-151.94 -221.00 1775.9
-147.03 -220.55 1772.3
-142.63 -220.84 1774.6
-141.44 -226.31 1818.5
-143.30 -237.19 1906.0
-528.18 -196.07 1543.4
-523.31 -195.74 1540.8
-518.45 -195.42 1538.3
-504.78 -191.74 1509.3
-500.63 -191.65 1508.6
-493.06 -190.24 1497.5
-476.29 -185.22 1458.0
-467.36 -183.20 1442.1
-469.43 -185.50 1460.2
-475.34 -189.36 1490.6
-464.34 -186.50 1468.1
-442.75 -179.29 1411.4
-437.05 -178.46 1404.8
-438.99 -180.76 1422.9
-434.16 -180.29 1419.2
-431.65 -180.78 1423.0
-428.55 -181.03 1425.0
-415.23 -176.92 1392.7
-410.50 -176.44 1388.9
-407.18 -176.56 1389.9
-393.89 -172.33 1356.5
-393.66 -173.78 1367.9
-399.36 -177.90 1400.3
-391.13 -175.83 1384.1
-383.25 -173.88 1368.8
-378.10 -173.15 1363.0
-367.45 -169.86 1337.1
-367.34 -171.43 1349.4
-373.64 -176.04 1385.8
-370.80 -176.40 1388.6
-366.92 -176.27 1387.5
-369.34 -179.18 1410.5
-366.90 -179.78 1415.2
-355.56 -175.99 1385.3
-349.74 -174.87 1376.5
-351.95 -177.79 1399.5
-347.81 -177.53 1397.5
-337.99 -174.33 1372.3
-325.70 -169.78 1336.4
-319.16 -168.16 1323.7
-319.14 -169.98 1338.0
-314.26 -169.21 1332.0
-315.49 -171.77 1352.1
-318.85 -175.55 1381.9
-311.47 -173.43 1365.2
-309.85 -174.51 1373.7
-317.25 -180.76 1422.9
-315.02 -181.60 1429.5
-307.04 -179.11 1409.9
-298.33 -176.12 1386.4
-291.17 -173.99 1369.6
-288.38 -174.45 1373.2
-283.15 -173.43 1365.2
-281.75 -174.75 1375.6
-285.20 -179.17 1410.3
-281.49 -179.13 1410.1
-276.63 -178.35 1403.9
-272.74 -178.19 1402.7
-266.05 -176.17 1386.8
-262.21 -176.01 1385.5
-257.83 -175.47 1381.2
-256.70 -177.16 1394.5
-264.18 -184.93 1455.7
-266.12 -188.98 1487.6
-258.93 -186.58 1468.7
-250.82 -183.43 1443.9
-245.00 -181.90 1431.8
-240.73 -181.48 1428.5
-235.83 -180.56 1421.3
-231.92 -180.38 1419.9
-234.00 -184.94 1455.8
-235.43 -189.12 1488.7
-228.61 -186.70 1469.7
-223.84 -185.90 1463.4
-223.52 -188.84 1486.5
-221.05 -190.03 1495.9
-215.83 -188.85 1486.6
-211.21 -188.17 1481.2
-207.03 -187.86 1478.8
-200.30 -185.18 1457.7
-197.25 -185.87 1463.1
-197.29 -189.56 1492.1
-194.76 -190.87 1502.5
-189.68 -189.68 1493.1
-185.38 -189.24 1489.6
-184.57 -192.42 1514.7
-184.93 -196.99 1550.6
-183.95 -200.30 1576.7
-178.34 -198.61 1563.4
-173.79 -198.04 1558.9
-171.62 -200.22 1576.1
-163.91 -195.89 1542.0
-156.58 -191.80 1509.8
-156.59 -196.74 1548.7
-159.72 -205.95 1621.2
-160.38 -212.40 1671.9
-158.48 -215.71 1698.0
-156.00 -218.40 1719.2
-155.93 -224.73 1769.0
-154.59 -229.55 1806.9
-151.50 -231.98 1826.1
-149.02 -235.55 1854.2
-144.70 -236.35 1860.5
-143.18 -241.92 1904.4
-141.57 -247.75 1950.2
-537.84 -205.28 1583.6
-511.32 -196.66 1517.1
-508.41 -197.06 1520.2
-514.55 -201.00 1550.5
-512.47 -201.76 1556.4
-500.50 -198.61 1532.1
-476.70 -190.68 1471.0
-465.35 -187.64 1447.5
-477.31 -194.03 1496.8
-472.58 -193.68 1494.1
-451.82 -186.70 1440.3
-448.12 -186.72 1440.4
-447.63 -188.08 1450.9
-440.13 -186.49 1438.7
-430.37 -183.92 1418.8
-420.42 -181.22 1397.9
-411.70 -179.00 1380.9
-411.50 -180.48 1392.3
-419.05 -185.42 1430.4
-415.35 -185.42 1430.4
-404.79 -182.34 1406.6
-400.32 -181.97 1403.7
-392.90 -180.23 1390.4
-386.08 -178.74 1378.9
-388.86 -181.71 1401.8
-385.48 -181.83 1402.7
-377.40 -179.71 1386.4
-377.14 -181.32 1398.7
-378.62 -183.80 1417.9
-378.99 -185.78 1433.1
-374.00 -185.15 1428.3
-364.05 -182.03 1404.2
-357.67 -180.64 1393.5
-356.97 -182.13 1405.0
-354.99 -182.98 1411.6
-346.99 -180.72 1394.1
-343.34 -180.71 1394.0
-337.34 -179.44 1384.2
-330.93 -177.92 1372.5
-330.55 -179.65 1385.8
-324.41 -178.25 1375.0
-324.63 -180.35 1391.3
-328.57 -184.59 1424.0
-321.31 -182.56 1408.3
-309.97 -178.14 1374.3
-307.87 -178.99 1380.8
-311.50 -183.24 1413.5
-309.48 -184.21 1421.1
-306.58 -184.69 1424.7
-305.11 -186.04 1435.2
-295.02 -182.11 1404.9
-282.26 -176.41 1360.9
-278.87 -176.50 1361.6
-280.20 -179.61 1385.6
-281.98 -183.11 1412.5
-282.29 -185.72 1432.7
-278.52 -185.68 1432.4
-272.14 -183.88 1418.5
-266.74 -182.70 1409.4
-260.84 -181.14 1397.4
-257.52 -181.35 1399.0
-262.51 -187.50 1446.5
-262.89 -190.50 1469.6
-254.37 -187.04 1442.9
-250.57 -186.99 1442.5
-248.77 -188.47 1453.9
-244.94 -188.42 1453.5
-240.63 -187.99 1450.2
-232.17 -184.26 1421.4
-229.83 -185.35 1429.8
-235.98 -193.42 1492.1
-233.57 -194.64 1501.5
-228.57 -193.70 1494.3
-227.87 -196.44 1515.4
-221.42 -194.23 1498.3
-211.91 -189.21 1459.6
-210.44 -191.31 1475.8
-209.44 -193.93 1496.0
-203.34 -191.83 1479.8
-201.03 -193.30 1491.1
-197.75 -193.87 1495.6
-192.15 -192.15 1482.3
-191.99 -195.91 1511.3
-192.54 -200.57 1547.2
-190.87 -203.05 1566.4
-190.51 -207.07 1597.4
-185.27 -205.86 1588.0
-175.47 -199.40 1538.2
-171.75 -199.71 1540.6
-170.60 -203.09 1566.7
-167.21 -203.91 1573.0
-164.10 -205.12 1582.3
-156.64 -200.82 1549.2
-152.37 -200.49 1546.6
-156.07 -210.90 1627.0
-157.42 -218.64 1686.6
-153.89 -219.84 1695.9
-152.49 -224.24 1729.9
-153.27 -232.23 1791.5
-152.60 -238.43 1839.3
-150.16 -242.20 1868.4
-146.04 -243.40 1877.7
-143.21 -246.91 1904.7
-140.31 -250.55 1932.8
-535.13 -208.33 1575.6
-518.46 -203.40 1538.3
-526.20 -208.03 1573.3
-522.52 -208.19 1574.6
-511.38 -205.36 1553.1
-504.97 -204.39 1545.8
-485.74 -198.18 1498.8
-462.78 -190.34 1439.5
-466.02 -193.23 1461.4
-479.02 -200.25 1514.5
-475.44 -200.39 1515.6
-465.37 -197.78 1495.8
-459.20 -196.80 1488.4
-452.76 -195.69 1480.0
-444.35 -193.69 1464.9
-435.72 -191.57 1448.8
-428.01 -189.81 1435.6
-424.03 -189.70 1434.7
-428.68 -193.48 1463.3
-424.35 -193.23 1461.4
-412.62 -189.58 1433.8
-404.01 -187.31 1416.7
-392.78 -183.78 1389.9
-381.95 -180.36 1364.1
-380.78 -181.49 1372.6
-384.04 -184.78 1397.5
-382.49 -185.78 1405.1
-388.39 -190.46 1440.5
-396.42 -196.28 1484.5
-389.27 -194.63 1472.0
-376.65 -190.19 1438.4
-364.19 -185.74 1404.7
-355.59 -183.18 1385.4
-355.39 -184.95 1398.8
-353.91 -186.08 1407.3
-346.88 -184.28 1393.7
-343.94 -184.64 1396.5
-343.34 -186.28 1408.9
-341.52 -187.28 1416.4
-345.40 -191.47 1448.1
-342.98 -192.22 1453.8
-330.84 -187.48 1417.9
-323.11 -185.15 1400.3
-322.75 -187.05 1414.6
-318.60 -186.77 1412.5
-308.64 -183.03 1384.2
-304.78 -182.87 1383.1
-304.10 -184.63 1396.4
-302.94 -186.14 1407.8
-299.65 -186.37 1409.5
-287.79 -181.20 1370.4
-276.93 -176.54 1335.2
-275.60 -177.92 1345.6
-278.73 -182.25 1378.3
-281.70 -186.58 1411.1
-281.05 -188.60 1426.4
-276.16 -187.79 1420.3
-270.74 -186.59 1411.2
-266.10 -185.91 1406.0
-264.76 -187.54 1418.4
-265.87 -190.98 1444.4
-260.65 -189.90 1436.2
-251.10 -185.60 1403.7
-248.78 -186.58 1411.1
-251.17 -191.19 1445.9
-253.38 -195.79 1480.8
-253.43 -198.85 1503.9
-243.31 -193.89 1466.4
-229.37 -185.68 1404.3
-225.04 -185.11 1400.0
-229.08 -191.53 1448.5
-227.86 -193.68 1464.8
-224.14 -193.75 1465.3
-223.08 -196.16 1483.6
-216.56 -193.77 1465.5
-211.27 -192.41 1455.2
-213.88 -198.32 1499.9
-214.87 -202.93 1534.8
-210.83 -202.88 1534.4
-204.54 -200.61 1517.2
-197.29 -197.29 1492.1
-192.34 -196.19 1483.8
-192.93 -200.80 1518.7
-192.48 -204.51 1546.7
-189.73 -205.87 1557.0
-186.22 -206.46 1561.4
-178.20 -201.96 1527.4
-173.28 -200.85 1519.0
-174.11 -206.51 1561.8
-172.79 -209.82 1586.9
-169.25 -210.53 1592.2
-166.39 -212.15 1604.5
-159.18 -208.16 1574.3
-153.88 -206.52 1561.9
-156.49 -215.70 1631.4
-159.48 -225.94 1708.8
-157.60 -229.64 1736.8
-147.47 -221.21 1673.0
-139.11 -214.99 1626.0
-142.30 -226.79 1715.2
-143.92 -236.77 1790.7
-139.38 -236.95 1792.0
-136.25 -239.61 1812.2
-135.67 -247.10 1868.9
-136.87 -258.53 1955.2
-540.39 -214.50 1591.1
-527.81 -211.12 1566.0
-532.67 -216.40 1605.1
-518.36 -212.24 1574.3
-509.43 -210.24 1559.5
-502.40 -209.00 1550.3
-489.95 -205.46 1524.0
-472.80 -199.88 1482.7
-469.30 -200.03 1483.7
-473.81 -203.62 1510.4
-469.35 -203.39 1508.6
-462.85 -202.26 1500.2
-456.68 -201.25 1492.8
-447.09 -198.71 1473.9
-438.15 -196.41 1456.9
-434.11 -196.30 1456.0
-434.01 -197.97 1468.5
-439.15 -202.08 1499.0
-435.28 -202.09 1499.1
-416.06 -194.91 1445.8
-400.35 -189.25 1403.8
-401.56 -191.57 1421.0
-403.22 -194.14 1440.1
-390.74 -189.89 1408.5
-383.92 -188.34 1397.0
-379.76 -188.07 1395.1
-383.62 -191.81 1422.8
-392.20 -198.00 1468.7
-385.85 -196.71 1459.1
-379.04 -195.15 1447.5
-373.03 -193.98 1438.8
-364.60 -191.51 1420.5
-364.31 -193.31 1433.9
-362.74 -194.46 1442.4
-355.39 -192.50 1427.9
-350.71 -191.97 1423.9
-347.93 -192.47 1427.7
-346.05 -193.49 1435.2
-350.12 -197.89 1467.9
-345.60 -197.49 1464.9
-330.96 -191.22 1418.4
-322.12 -188.20 1396.0
-321.10 -189.74 1407.4
-320.68 -191.67 1421.7
-314.58 -190.21 1410.9
-309.81 -189.53 1405.8
-308.01 -190.67 1414.3
-303.26 -189.99 1409.3
-296.67 -188.13 1395.5
-291.98 -187.44 1390.4
-288.52 -187.54 1391.1
-283.07 -186.32 1382.1
-282.18 -188.12 1395.4
-282.97 -191.09 1417.5
-279.24 -191.06 1417.2
-274.75 -190.49 1413.0
-269.72 -189.53 1405.9
-265.09 -188.83 1400.7
-263.58 -190.37 1412.1
-264.89 -194.00 1439.0
-259.86 -193.04 1431.9
-252.07 -189.97 1409.1
-251.62 -192.42 1427.3
-252.95 -196.32 1456.2
-254.13 -200.22 1485.2
-256.31 -205.05 1521.0
-248.09 -201.58 1495.2
-239.84 -197.97 1468.4
-241.32 -202.40 1501.3
-236.60 -201.69 1496.0
-226.87 -196.62 1458.4
-219.12 -193.13 1432.5
-214.16 -192.01 1424.2
-214.03 -195.25 1448.3
-214.91 -199.56 1480.2
-217.30 -205.45 1523.9
-217.96 -209.89 1556.9
-208.20 -204.27 1515.2
-196.26 -196.26 1455.8
-194.50 -198.31 1471.0
-195.08 -202.88 1504.9
-195.49 -207.46 1538.8
-195.23 -211.50 1568.8
-191.10 -211.43 1568.3
-186.27 -210.57 1561.9
-179.17 -207.05 1535.8
-175.13 -206.97 1535.2
-173.73 -210.09 1558.3
-170.16 -210.68 1562.7
-168.77 -214.06 1587.8
-168.18 -218.63 1621.7
-164.31 -219.09 1625.1
-162.18 -221.93 1646.2
-163.06 -229.17 1699.9
-164.13 -237.07 1758.5
-159.70 -237.26 1759.9
-147.25 -225.20 1670.5
-138.05 -217.53 1613.6
-139.96 -227.43 1687.0
-144.74 -242.80 1801.0
-143.33 -248.44 1842.8
-137.32 -246.22 1826.4
-133.54 -248.00 1839.6
-131.77 -253.78 1882.4
-128.64 -257.29 1908.4
-126.02 -262.13 1944.4
-565.01 -230.35 1676.4
-556.34 -232.17 1689.7
-540.37 -227.30 1654.2
-526.40 -223.19 1624.3
-527.13 -225.30 1639.7
-521.15 -224.56 1634.3
-493.38 -214.34 1559.9
-476.93 -208.90 1520.3
-469.79 -207.49 1510.1
-460.08 -204.91 1491.2
-461.47 -207.27 1508.4
-459.32 -208.07 1514.2
-443.44 -202.61 1474.5
-433.69 -199.88 1454.6
-432.47 -201.06 1463.2
-436.50 -204.73 1489.9
-437.63 -207.09 1507.1
-423.32 -202.13 1471.0
-410.28 -197.68 1438.6
-414.64 -201.61 1467.3
-420.46 -206.34 1501.7
-412.34 -204.24 1486.4
-400.61 -200.30 1457.7
-392.14 -197.94 1440.5
-380.40 -193.86 1410.8
-373.65 -192.27 1399.3
-381.16 -198.05 1441.4
-388.20 -203.71 1482.5
-371.66 -196.98 1433.6
-352.40 -188.66 1373.0
-359.31 -194.32 1414.2
-364.08 -198.93 1447.7
-356.71 -196.93 1433.2
-352.25 -196.52 1430.2
-356.26 -200.87 1461.9
-361.27 -205.89 1498.4
-358.52 -206.54 1503.1
-347.54 -202.41 1473.1
-334.00 -196.69 1431.4
-326.02 -194.15 1412.9
-319.67 -192.53 1401.2
-314.69 -191.71 1395.2
-313.83 -193.40 1407.5
-314.18 -195.90 1425.7
-310.86 -196.14 1427.4
-303.99 -194.11 1412.7
-296.57 -191.68 1395.0
-291.27 -190.58 1387.0
-296.07 -196.15 1427.5
-298.88 -200.51 1459.3
-288.76 -196.21 1427.9
-280.16 -192.83 1403.4
-276.65 -192.93 1404.1
-272.76 -192.75 1402.8
-266.64 -190.97 1389.8
-260.76 -189.32 1377.8
-262.77 -193.43 1407.7
-266.95 -199.27 1450.2
-266.67 -201.91 1469.4
-263.15 -202.13 1471.0
-256.53 -199.94 1455.1
-251.85 -199.22 1449.9
-248.19 -199.31 1450.5
-245.52 -200.20 1457.0
-247.04 -204.58 1488.8
-248.39 -208.96 1520.7
-243.60 -208.24 1515.5
-232.65 -202.13 1471.1
-227.25 -200.73 1460.9
-223.69 -200.95 1462.4
-219.54 -200.62 1460.0
-220.04 -204.60 1489.0
-218.25 -206.56 1503.3
-217.79 -209.87 1527.3
-215.69 -211.69 1540.6
-203.41 -203.41 1480.3
-194.34 -198.08 1441.5
-195.47 -203.14 1478.4
-197.43 -209.28 1523.1
-199.54 -215.83 1570.7
-196.75 -217.25 1581.1
-190.20 -214.48 1560.9
-188.20 -216.84 1578.1
-184.28 -217.04 1579.5
-178.89 -215.48 1568.2
-176.08 -217.03 1579.5
-170.32 -214.92 1564.1
-166.73 -215.52 1568.5
-168.73 -223.57 1627.1
-167.35 -227.42 1655.1
-162.81 -227.07 1652.5
-161.21 -230.92 1680.6
-160.67 -236.53 1721.4
-154.63 -234.15 1704.1
-150.24 -234.20 1704.4
-149.57 -240.22 1748.2
-144.09 -238.64 1736.8
-140.80 -240.73 1751.9
-143.74 -253.94 1848.1
-142.02 -259.56 1889.0
-135.64 -256.76 1868.6
-130.75 -256.67 1867.9
-129.40 -263.77 1919.6
-554.36 -237.58 1697.0
-535.40 -231.29 1652.1
-532.72 -231.99 1657.1
-535.44 -235.07 1679.1
-513.24 -227.17 1622.7
-501.40 -223.76 1598.3
-499.38 -224.72 1605.2
-479.51 -217.59 1554.2
-473.21 -216.55 1546.8
-475.86 -219.63 1568.8
-463.85 -215.93 1542.4
-456.21 -214.22 1530.1
-457.05 -216.50 1546.4
-445.83 -213.05 1521.8
-433.34 -208.93 1492.4
-429.76 -209.07 1493.4
-427.54 -209.88 1499.2
-419.08 -207.62 1483.0
-411.51 -205.75 1469.7
-409.03 -206.42 1474.5
-403.10 -205.35 1466.8
-390.19 -200.67 1433.3
-373.05 -193.70 1383.6
-369.95 -193.96 1385.4
-381.03 -201.72 1440.9
-387.32 -207.08 1479.2
-369.80 -199.69 1426.4
-346.87 -189.20 1351.4
-349.92 -192.81 1377.2
-359.36 -200.06 1429.0
-356.59 -200.58 1432.7
-346.92 -197.20 1408.6
-346.29 -198.93 1420.9
-350.70 -203.63 1454.5
-347.13 -203.75 1455.4
-348.33 -206.70 1476.4
-346.73 -208.04 1486.0
-327.69 -198.83 1420.2
-310.97 -190.82 1363.0
-308.69 -191.60 1368.6
-310.27 -194.82 1391.6
-311.09 -197.64 1411.7
-308.44 -198.28 1416.3
-304.30 -197.98 1414.1
-299.35 -197.13 1408.1
-292.59 -195.06 1393.3
-295.97 -199.78 1427.0
-300.57 -205.45 1467.5
-292.00 -202.16 1444.0
-282.19 -197.90 1413.6
-277.90 -197.45 1410.4
-275.13 -198.09 1415.0
-269.72 -196.82 1405.9
-267.31 -197.73 1412.4
-272.13 -204.10 1457.8
-269.55 -205.01 1464.4
-262.33 -202.37 1445.5
-261.14 -204.37 1459.8
-256.78 -203.92 1456.5
-249.73 -201.27 1437.7
-244.10 -199.72 1426.6
-241.32 -200.48 1432.0
-242.41 -204.54 1461.0
-238.88 -204.76 1462.5
-229.37 -199.77 1426.9
-227.30 -201.22 1437.3
-230.67 -207.60 1482.9
-227.81 -208.50 1489.3
-224.62 -209.13 1493.8
-223.44 -211.68 1512.0
-220.17 -212.30 1516.5
-216.73 -212.79 1519.9
-211.63 -211.63 1511.7
-206.71 -210.61 1504.3
-204.99 -212.88 1520.5
-201.90 -213.77 1526.9
-199.78 -215.77 1541.2
-196.10 -216.11 1543.7
-187.39 -210.81 1505.8
-184.26 -211.70 1512.2
-185.44 -217.69 1554.9
-186.51 -223.81 1598.7
-186.12 -228.43 1631.6
-180.30 -226.42 1617.3
-171.54 -220.56 1575.4
-168.03 -221.31 1580.8
-170.21 -229.78 1641.3
-166.89 -231.08 1650.6
-160.42 -227.96 1628.3
-161.34 -235.47 1682.0
-163.09 -244.64 1747.4
-157.35 -242.76 1734.0
-153.67 -244.06 1743.3
-153.74 -251.58 1797.0
-149.28 -251.91 1799.3
-142.02 -247.40 1767.1
-140.47 -252.84 1806.0
-140.04 -260.77 1862.6
-135.02 -260.40 1860.0
-131.12 -262.25 1873.2
-130.29 -270.59 1932.8
-545.91 -240.20 1684.5
-532.85 -236.35 1657.5
-527.74 -235.98 1654.9
-510.09 -229.96 1612.7
-503.31 -228.78 1604.4
-518.35 -237.58 1666.1
-511.77 -236.53 1658.8
-487.26 -227.11 1592.7
-474.55 -223.08 1564.5
-463.41 -219.72 1540.9
-456.62 -218.38 1531.5
-466.45 -225.04 1578.2
-462.95 -225.33 1580.2
-448.67 -220.33 1545.2
-444.14 -220.07 1543.4
-437.45 -218.72 1533.9
-424.33 -214.11 1501.6
-408.70 -208.13 1459.6
-398.30 -204.73 1435.8
-397.46 -206.23 1446.3
-389.80 -204.18 1431.9
-377.31 -199.54 1399.4
-378.77 -202.26 1418.4
-378.88 -204.30 1432.7
-374.65 -204.02 1430.8
-368.18 -202.50 1420.1
-355.37 -197.43 1384.6
-352.24 -197.68 1386.4
-355.86 -201.78 1415.1
-358.14 -205.19 1439.0
-353.91 -204.90 1436.9
-344.06 -201.31 1411.8
-339.44 -200.74 1407.8
-338.97 -202.65 1421.1
-342.98 -207.30 1453.8
-344.58 -210.58 1476.8
-328.25 -202.85 1422.6
-312.85 -195.53 1371.2
-311.42 -196.88 1380.7
-317.49 -203.05 1424.0
-322.50 -208.67 1463.4
-313.81 -205.47 1441.0
-304.20 -201.58 1413.7
-305.01 -204.58 1434.7
-303.89 -206.35 1447.1
-302.71 -208.11 1459.5
-302.65 -210.71 1477.7
-294.65 -207.77 1457.1
-285.20 -203.71 1428.6
-278.57 -201.60 1413.8
-274.09 -201.00 1409.6
-272.99 -202.90 1422.9
-274.40 -206.74 1449.9
-273.67 -209.05 1466.1
-265.87 -205.96 1444.4
-263.30 -206.88 1450.9
-266.63 -212.53 1490.5
-257.55 -208.32 1460.9
-245.91 -201.87 1415.7
-243.01 -202.51 1420.2
-243.21 -205.80 1443.3
-242.81 -208.67 1463.4
-237.20 -207.08 1452.3
-230.07 -204.10 1431.3
-230.47 -207.80 1457.3
-233.48 -214.02 1500.9
-230.43 -214.80 1506.4
-223.81 -212.23 1488.4
-219.60 -211.89 1486.0
-213.97 -210.15 1473.8
-208.13 -208.13 1459.6
-207.44 -211.28 1481.7
-207.04 -214.85 1506.7
-201.48 -213.10 1494.5
-194.56 -209.82 1471.4
-195.64 -215.21 1509.2
-195.03 -218.92 1535.3
-188.18 -215.62 1512.2
-186.71 -218.49 1532.3
-188.77 -225.71 1582.9
-190.46 -232.79 1632.5
-186.39 -232.99 1634.0
-176.94 -226.32 1587.2
-172.34 -225.69 1582.7
-172.99 -232.06 1627.5
-173.21 -238.16 1670.2
-168.33 -237.38 1664.8
-164.92 -238.71 1674.0
-168.66 -250.71 1758.2
-168.46 -257.38 1805.0
-161.32 -253.50 1777.8
-155.35 -251.31 1762.4
-153.18 -255.30 1790.4
-150.62 -258.87 1815.5
-145.38 -257.94 1808.9
-138.96 -254.75 1786.6
-133.61 -253.40 1777.1
-132.68 -260.62 1827.8
-133.01 -270.95 1900.2
-556.02 -251.11 1729.6
-550.74 -250.74 1727.1
-532.62 -244.48 1683.9
-516.49 -239.03 1646.4
-524.36 -244.70 1685.4
-518.32 -243.91 1680.0
-492.02 -233.50 1608.3
-478.71 -229.12 1578.2
-467.82 -225.84 1555.6
-455.62 -221.87 1528.2
-460.95 -226.43 1559.6
-454.72 -225.35 1552.1
-438.30 -219.15 1509.4
-445.64 -224.83 1548.5
-449.25 -228.71 1575.3
-434.96 -223.47 1539.2
-418.44 -216.97 1494.4
-402.93 -210.88 1452.5
-397.32 -209.91 1445.8
-399.29 -212.95 1466.8
-396.51 -213.51 1470.6
-386.31 -210.03 1446.6
-374.70 -205.72 1416.9
-369.50 -204.87 1411.1
-362.09 -202.77 1396.6
-358.94 -203.04 1398.5
-365.04 -208.59 1436.7
-360.81 -208.30 1434.7
-355.39 -207.31 1427.9
-358.29 -211.20 1454.7
-355.20 -211.61 1457.5
-345.82 -208.24 1434.3
-340.69 -207.38 1428.4
-335.82 -206.66 1423.4
-328.71 -204.53 1408.8
-324.80 -204.37 1407.6
-320.89 -204.20 1406.5
-317.85 -204.59 1409.2
-322.12 -209.75 1444.7
-322.38 -212.39 1462.9
-309.28 -206.19 1420.2
-302.22 -203.91 1404.5
-305.94 -208.93 1439.1
-308.87 -213.54 1470.8
-311.25 -217.87 1500.7
-306.91 -217.56 1498.5
-294.94 -211.75 1458.5
-283.74 -206.36 1421.3
-275.79 -203.21 1399.7
-270.02 -201.62 1388.7
-268.23 -202.98 1398.1
-269.88 -207.03 1426.0
-269.76 -209.81 1445.1
-265.24 -209.20 1440.9
-266.04 -212.83 1465.9
-268.11 -217.59 1498.7
-257.29 -211.89 1459.4
-247.69 -207.02 1425.9
-246.93 -209.52 1443.1
-245.10 -211.17 1454.5
-242.57 -212.24 1461.9
-239.67 -213.04 1467.4
-234.86 -212.13 1461.1
-228.69 -209.95 1446.1
-225.18 -210.17 1447.6
-226.60 -215.08 1481.4
-224.61 -216.87 1493.7
-218.79 -214.96 1480.6
-211.91 -211.91 1459.6
-203.86 -207.57 1429.7
-200.91 -208.36 1435.1
-205.21 -216.83 1493.5
-204.45 -220.18 1516.5
-197.21 -216.55 1491.5
-197.73 -221.46 1525.4
-197.46 -225.67 1554.3
-191.17 -223.03 1536.2
-187.12 -222.95 1535.7
-186.60 -227.16 1564.6
-186.03 -231.51 1594.6
-179.60 -228.58 1574.4
-172.06 -224.07 1543.4
-169.17 -225.56 1553.6
-169.69 -231.77 1596.4
-169.57 -237.40 1635.2
-167.57 -240.61 1657.3
-167.10 -246.25 1696.1
-165.57 -250.60 1726.1
-160.40 -249.51 1718.6
-156.34 -250.14 1722.9
-153.21 -252.35 1738.1
-150.09 -254.69 1754.3
-146.39 -256.18 1764.5
-140.81 -254.37 1752.0
-134.07 -250.27 1723.8
-130.44 -251.89 1735.0
-131.27 -262.54 1808.3
-133.86 -277.64 1912.3
-550.96 -257.41 1741.9
-536.46 -252.71 1710.1
-525.65 -249.68 1689.6
-501.21 -240.08 1624.6
-495.62 -239.41 1620.1
-502.11 -244.62 1655.3
-494.18 -242.83 1643.2
-484.32 -240.05 1624.4
-468.37 -234.19 1584.7
-442.32 -223.11 1509.8
-434.56 -221.16 1496.6
-450.96 -231.57 1567.0
-445.30 -230.74 1561.4
-421.89 -220.62 1492.9
-412.69 -217.81 1473.9
-404.90 -215.70 1459.6
-396.13 -213.02 1441.5
-394.73 -214.28 1450.0
-388.65 -213.01 1441.4
-374.68 -207.35 1403.1
-359.13 -200.69 1358.1
-351.07 -198.13 1340.7
-358.24 -204.20 1381.8
-369.64 -212.82 1440.2
-367.84 -213.95 1447.8
-356.58 -209.54 1417.9
-355.03 -210.80 1426.4
-361.24 -216.75 1466.7
-353.43 -214.31 1450.2
-339.43 -208.04 1407.8
-341.49 -211.57 1431.7
-343.42 -215.11 1455.6
-330.62 -209.39 1416.9
-321.57 -205.95 1393.6
-318.79 -206.49 1397.3
-316.87 -207.60 1404.8
-317.70 -210.57 1424.9
-314.60 -210.97 1427.6
-304.96 -206.94 1400.3
-301.49 -207.04 1401.1
-301.30 -209.44 1417.3
-300.02 -211.12 1428.7
-308.32 -219.68 1486.6
-309.78 -223.51 1512.5
-296.60 -216.74 1466.7
-284.22 -210.40 1423.7
-277.60 -208.20 1408.9
-273.52 -207.87 1406.7
-270.18 -208.11 1408.3
-270.34 -211.09 1428.4
-270.57 -214.20 1449.5
-266.76 -214.16 1449.2
-260.82 -212.38 1437.2
-256.34 -211.76 1432.9
-253.42 -212.42 1437.5
-251.15 -213.67 1445.9
-249.68 -215.63 1459.2
-246.99 -216.59 1465.6
-243.29 -216.68 1466.2
-239.26 -216.48 1464.9
-237.60 -218.44 1478.2
-234.64 -219.25 1483.6
-225.25 -213.99 1448.0
-220.83 -213.35 1443.7
-227.03 -223.12 1509.8
-229.42 -229.42 1552.5
-221.35 -225.31 1524.6
-212.31 -220.03 1488.9
-205.37 -216.78 1466.9
-205.54 -221.05 1495.8
-210.59 -230.84 1562.1
-209.20 -233.81 1582.2
-202.62 -230.99 1563.1
-195.39 -227.29 1538.1
-190.73 -226.49 1532.7
-188.13 -228.16 1543.9
-184.42 -228.52 1546.4
-180.69 -228.88 1548.8
-180.20 -233.45 1579.7
-178.13 -236.13 1597.9
-169.32 -229.80 1555.0
-163.98 -227.97 1542.6
-166.35 -237.05 1604.1
-166.31 -243.07 1644.8
-161.70 -242.55 1641.3
-156.16 -240.57 1627.9
-156.02 -247.03 1671.7
-156.55 -254.95 1725.3
-151.94 -254.72 1723.7
-147.33 -254.48 1722.1
-141.18 -251.48 1701.7
-133.23 -244.97 1657.7
-133.64 -253.91 1718.2
-137.59 -270.44 1830.0
-134.73 -274.28 1856.0
-133.47 -281.76 1906.7
-529.17 -253.65 1686.8
-509.30 -246.16 1637.0
-502.50 -244.91 1628.7
-513.69 -252.49 1679.1
-522.91 -259.22 1723.9
-515.10 -257.55 1712.8
-493.48 -248.89 1655.2
-465.97 -237.07 1576.6
-451.07 -231.52 1539.7
-453.45 -234.82 1561.6
-445.33 -232.69 1547.5
-417.18 -219.97 1462.9
-400.75 -213.24 1418.1
-398.67 -214.10 1423.8
-401.85 -217.83 1448.6
-403.86 -220.98 1469.6
-399.79 -220.84 1468.6
-391.34 -218.25 1451.4
-386.04 -217.38 1445.6
-378.99 -215.50 1433.2
-363.48 -208.73 1388.1
-364.57 -211.45 1406.2
-366.80 -214.90 1429.1
-356.74 -211.13 1404.1
-355.49 -212.56 1413.6
-364.22 -220.05 1463.4
-371.76 -226.97 1509.4
-364.78 -225.08 1496.8
-340.70 -212.48 1413.1
-334.02 -210.58 1400.4
-348.30 -221.99 1476.3
-347.14 -223.71 1487.7
-326.57 -212.82 1415.3
-312.95 -206.27 1371.7
-313.49 -208.99 1389.8
-316.94 -213.75 1421.5
-315.77 -215.46 1432.9
-307.79 -212.52 1413.3
-298.46 -208.56 1387.0
-292.14 -206.64 1374.2
-282.83 -202.52 1346.8
-282.49 -204.81 1362.0
-292.40 -214.67 1427.6
-287.47 -213.76 1421.6
-285.67 -215.18 1431.0
-289.55 -220.97 1469.5
-279.46 -216.12 1437.2
-270.46 -211.98 1409.7
-271.16 -215.44 1432.7
-271.38 -218.61 1453.8
-269.16 -219.88 1462.3
-264.96 -219.54 1460.0
-258.51 -217.29 1445.1
-253.84 -216.51 1439.9
-253.09 -219.10 1457.0
-252.93 -222.27 1478.1
-248.38 -221.63 1473.9
-242.87 -220.10 1463.8
-240.45 -221.37 1472.2
-240.34 -224.83 1495.2
-241.81 -229.92 1529.0
-236.88 -228.98 1522.8
-228.68 -224.80 1495.0
-230.77 -230.77 1534.7
-231.65 -235.71 1567.5
-222.41 -230.35 1531.9
-217.26 -229.11 1523.6
-214.21 -230.07 1530.0
-206.95 -226.47 1506.1
-204.83 -228.46 1519.3
-204.07 -232.08 1543.4
-197.97 -229.64 1527.2
