ply
format ascii 1.0
element vertex 2142
property float x
property float y
property float z
end_header
-995.04 181.34 1793.5
-1005.91 184.18 1821.6
-1000.84 184.12 1820.9
-979.99 181.14 1791.5
-955.45 177.44 1754.9
-975.65 182.06 1800.6
-1013.16 189.97 1878.8
-1017.38 191.68 1895.7
-1026.68 194.37 1922.4
-1040.09 197.87 1957.0
-1039.38 198.70 1965.2
-1039.55 199.72 1975.2
-1040.61 200.91 1987.0
-1047.14 203.18 2009.4
-1037.98 202.41 2001.8
-1022.92 200.47 1982.7
-1033.85 203.64 2014.0
-1049.19 207.71 2054.2
-1050.81 209.09 2067.9
-1054.62 210.92 2086.1
-1072.68 215.64 2132.7
-1061.12 214.42 2120.7
-1028.74 208.96 2066.7
-1031.95 210.71 2084.0
-1062.36 218.06 2156.7
-1082.39 223.35 2208.9
-1062.92 220.50 2180.8
-1031.40 215.10 2127.4
-1040.32 218.13 2157.4
-1078.41 227.34 2248.4
-1086.09 230.20 2276.7
-1074.43 228.98 2264.6
-1098.52 235.40 2328.1
-1116.34 157.11 1594.8
-1091.89 154.24 1565.6
-1046.49 148.38 1506.1
-1014.91 144.44 1466.2
-1000.44 142.92 1450.7
-999.57 143.34 1454.9
-995.31 143.26 1454.2
-984.87 142.30 1444.4
-984.54 142.80 1449.4
-974.70 141.91 1440.4
-972.68 142.16 1443.0
-1004.54 147.38 1496.0
-1001.30 147.48 1497.0
-957.71 141.61 1437.4
-944.10 140.14 1422.5
-952.52 141.94 1440.8
-955.39 142.93 1450.8
-951.11 142.85 1450.0
-961.55 145.00 1471.8
-964.85 146.07 1482.7
-951.29 144.60 1467.7
-956.17 145.92 1481.2
-972.85 149.07 1513.1
-997.47 153.46 1557.6
-1022.99 158.02 1604.0
-999.18 154.98 1573.1
-977.09 152.17 1544.6
-1000.24 156.42 1587.7
-1001.52 157.26 1596.3
-995.90 157.03 1593.9
-1004.49 159.04 1614.4
-1003.56 159.56 1619.6
-1004.70 160.41 1628.3
-995.37 159.59 1619.9
-994.39 160.11 1625.2
-1012.56 163.73 1662.0
-1022.33 166.02 1685.2
-1017.06 165.87 1683.7
-1004.61 164.55 1670.2
-1005.00 165.32 1678.1
-1016.07 167.87 1704.0
-1014.83 168.40 1709.3
-1005.96 167.66 1701.8
-990.05 165.73 1682.3
-976.72 164.23 1667.0
-980.01 165.51 1680.0
-989.26 167.82 1703.4
-993.92 169.37 1719.2
-996.04 170.49 1730.6
-1008.01 173.32 1759.3
-997.16 172.24 1748.3
-962.73 167.05 1695.6
-956.94 166.81 1693.1
-979.00 171.44 1740.2
-995.52 175.14 1777.7
-973.57 172.07 1746.6
-961.88 170.80 1733.7
-987.81 176.23 1788.8
-998.64 179.00 1816.9
-971.58 174.98 1776.1
-940.87 170.25 1728.1
-956.86 173.97 1765.9
-989.24 180.73 1834.4
-1011.46 185.68 1884.7
-1037.68 191.42 1943.0
-1032.35 191.36 1942.4
-1013.50 188.79 1916.3
-1030.02 192.81 1957.1
-1047.75 197.10 2000.7
-1047.35 198.01 2009.8
-1032.23 196.12 1990.7
-1003.03 191.53 1944.1
-997.67 191.47 1943.5
-1023.12 197.35 2003.2
-1035.23 200.71 2037.3
-1027.42 200.22 2032.3
-1035.30 202.79 2058.4
-1054.65 207.65 2107.7
-1054.26 208.66 2117.9
-1049.40 208.78 2119.2
-1071.38 214.28 2175.0
-1069.46 215.02 2182.6
-1025.17 207.21 2103.3
-1019.44 207.16 2102.7
-1056.55 215.85 2191.0
-1076.05 221.03 2243.5
-1061.87 219.30 2226.0
-1053.31 218.72 2220.1
-1081.32 225.77 2291.7
-1096.52 150.26 1566.5
-1060.14 145.82 1520.1
-1033.01 142.62 1486.7
-1017.35 140.98 1469.7
-1010.80 140.60 1465.7
-1018.37 142.19 1482.3
-1007.87 141.25 1472.5
-991.21 139.45 1453.7
-981.91 138.67 1445.6
-963.13 136.54 1423.3
-957.80 136.30 1420.9
-986.93 140.99 1469.8
-1005.35 144.18 1503.0
-983.30 141.57 1475.8
-963.55 139.26 1451.8
-966.43 140.23 1461.8
-973.64 141.83 1478.5
-974.79 142.56 1486.1
-965.54 141.77 1477.9
-949.25 139.93 1458.7
-949.83 140.58 1465.5
-968.77 143.95 1500.7
-960.62 143.32 1494.1
-961.09 143.97 1500.8
-991.02 149.06 1553.9
-971.57 146.73 1529.6
-939.43 142.45 1485.0
-951.01 144.80 1509.5
-968.33 148.05 1543.4
-980.76 150.57 1569.7
-999.41 154.08 1606.2
-1010.04 156.37 1630.1
-1015.87 157.93 1646.4
-1012.25 158.03 1647.4
-1011.21 158.54 1652.7
-1029.86 162.15 1690.4
-1022.52 161.68 1685.5
-1000.76 158.92 1656.7
-1002.22 159.84 1666.3
-1014.40 162.48 1693.8
-1000.94 161.02 1678.6
-975.84 157.67 1643.7
-975.21 158.26 1649.8
-967.99 157.78 1644.8
-957.25 156.72 1633.7
-961.62 158.13 1648.5
-979.44 161.78 1686.5
-992.61 164.69 1716.9
-977.33 162.89 1698.1
-972.03 162.74 1696.5
-997.84 167.82 1749.5
-1000.80 169.08 1762.7
-984.58 167.11 1742.1
-995.80 169.79 1770.0
-1008.86 172.81 1801.5
-983.46 169.25 1764.3
-973.67 168.34 1754.9
-1001.97 174.05 1814.4
-1026.67 179.18 1867.9
-1013.85 177.78 1853.3
-982.03 173.02 1803.7
-995.97 176.32 1838.1
-1011.19 179.88 1875.1
-1015.42 181.50 1892.1
-1051.50 188.86 1968.8
-1055.46 190.50 1985.9
-1020.69 185.12 1929.9
-1021.87 186.25 1941.6
-1031.78 188.99 1970.2
-1025.46 188.77 1967.8
-1044.82 193.29 2015.0
-1050.28 195.28 2035.7
-1022.44 191.06 1991.8
-1026.50 192.79 2009.8
-1031.38 194.70 2029.7
-1016.84 192.94 2011.3
-1019.84 194.50 2027.7
-1033.01 198.04 2064.5
-1040.26 200.47 2089.8
-1042.98 202.04 2106.2
-1040.34 202.59 2112.0
-1013.12 198.34 2067.6
-1002.68 197.34 2057.2
-1033.99 204.59 2132.8
-1061.09 211.08 2200.4
-1069.80 213.96 2230.5
-1058.65 212.88 2219.2
-1054.38 213.18 2222.3
-1069.64 217.45 2266.9
-1088.52 222.51 2319.7
-1084.42 222.91 2323.8
-1123.00 149.73 1604.3
-1091.68 146.10 1565.3
-1070.16 143.75 1540.2
-1040.78 140.33 1503.5
-1021.72 138.28 1481.6
-1020.23 138.60 1485.0
-1001.84 136.61 1463.7
-995.31 136.24 1459.7
-995.52 136.79 1465.6
-974.47 134.41 1440.1
-966.32 133.80 1433.6
-973.76 135.35 1450.2
-971.16 135.51 1451.9
-967.99 135.59 1452.8
-966.47 135.91 1456.2
-972.64 137.31 1471.2
-983.13 139.34 1492.9
-972.22 138.34 1482.2
-951.53 135.93 1456.4
-962.46 138.04 1479.0
-990.66 142.66 1528.5
-991.10 143.29 1535.3
-962.94 139.78 1497.7
-954.81 139.16 1491.0
-975.64 142.78 1529.8
-967.46 142.16 1523.1
-946.52 139.65 1496.3
-963.40 142.73 1529.2
-985.45 146.60 1570.7
-992.02 148.19 1587.7
-1004.32 150.65 1614.1
-1007.07 151.69 1625.3
-1005.58 152.10 1629.7
-1018.17 154.66 1657.1
-1033.24 157.61 1688.7
-1030.56 157.87 1691.5
-1000.98 154.00 1650.0
-988.05 152.66 1635.6
-995.72 154.51 1655.4
-998.70 155.64 1667.6
-975.60 152.70 1636.1
-966.86 152.00 1628.5
-982.49 155.13 1662.1
-971.20 154.02 1650.2
-956.42 152.35 1632.3
-953.25 152.52 1634.2
-963.60 154.86 1659.3
-987.31 159.39 1707.7
-984.47 159.64 1710.5
-968.74 157.80 1690.8
-984.69 161.13 1726.4
-1000.49 164.46 1762.1
-997.02 164.65 1764.1
-988.66 164.02 1757.3
-982.75 163.79 1754.9
-1006.45 168.52 1805.6
-1044.45 175.70 1882.5
-1029.62 174.02 1864.5
-1010.54 171.60 1838.6
-1019.30 173.91 1863.3
-1008.42 172.87 1852.2
-1005.18 173.14 1855.1
-1003.81 173.74 1861.5
-1002.42 174.33 1867.9
-1031.98 180.35 1932.3
-1051.92 184.73 1979.2
-1034.39 182.54 1955.8
-1026.71 182.08 1950.8
-1027.82 183.18 1962.6
-1013.68 181.55 1945.2
-1025.30 184.55 1977.4
-1050.48 190.04 2036.1
-1043.57 189.74 2032.9
-1034.85 189.11 2026.2
-1026.61 188.56 2020.3
-1016.59 187.68 2010.8
-1023.17 189.87 2034.3
-1029.65 192.06 2057.8
-1029.36 193.01 2067.9
-1034.34 194.95 2088.8
-1033.50 195.82 2098.1
-1027.35 195.69 2096.6
-1040.42 199.23 2134.6
-1055.06 203.11 2176.2
-1063.90 205.92 2206.2
-1085.53 211.24 2263.3
-1090.18 213.30 2285.3
-1063.56 209.22 2241.7
-1053.27 208.34 2232.2
-1079.85 214.78 2301.2
-1083.37 216.67 2321.5
-1071.70 215.54 2309.3
-1115.29 145.65 1605.2
-1071.60 140.47 1548.1
-1032.08 135.80 1496.6
-1013.62 133.87 1475.4
-996.93 132.17 1456.6
-993.79 132.25 1457.5
-994.56 132.86 1464.2
-974.63 130.70 1440.3
-964.25 129.80 1430.5
-969.47 131.01 1443.8
-968.54 131.39 1448.0
-966.49 131.62 1450.5
-971.04 132.76 1463.1
-983.25 134.96 1487.3
-960.81 132.40 1459.0
-919.51 127.71 1407.4
-954.46 133.09 1466.7
-986.49 138.11 1522.0
-990.73 139.26 1534.7
-981.98 138.59 1527.3
-995.30 141.03 1554.3
-999.93 142.27 1567.8
-975.11 139.30 1535.2
-954.68 136.94 1509.1
-973.13 140.16 1544.6
-1002.04 144.92 1597.1
-1015.97 147.55 1626.0
-1014.50 147.95 1630.5
-1001.99 146.74 1617.1
-997.38 146.67 1616.4
-1007.38 148.77 1639.5
-1016.25 150.72 1660.9
-1006.36 149.88 1651.8
-999.09 149.44 1646.8
-1006.27 151.16 1665.8
-988.19 149.08 1642.9
-966.61 146.46 1614.0
-976.28 148.56 1637.2
-1001.13 153.01 1686.2
-1011.58 155.29 1711.3
-995.64 153.51 1691.8
-977.75 151.42 1668.7
-973.01 151.36 1668.0
-977.29 152.70 1682.8
-995.97 156.32 1722.7
-1003.55 158.22 1743.6
-997.66 158.00 1741.2
-993.26 158.02 1741.4
-989.84 158.19 1743.4
-988.86 158.76 1749.6
-983.46 158.62 1748.1
-974.65 157.93 1740.4
-996.44 162.21 1787.6
-1040.28 170.14 1875.0
-1029.81 169.22 1864.8
-996.32 164.49 1812.7
-989.35 164.11 1808.6
-993.35 165.56 1824.5
-1005.36 168.36 1855.4
-1004.00 168.94 1861.8
-1003.07 169.60 1869.1
-997.89 169.54 1868.4
-983.35 167.89 1850.2
-995.91 170.87 1883.0
-1019.00 175.69 1936.2
-1043.27 180.76 1992.1
-1051.64 183.12 2018.1
-1037.88 181.63 2001.6
-1037.89 182.54 2011.7
-1031.93 182.41 2010.3
-1024.17 181.96 2005.3
-1035.38 184.89 2037.6
-1044.21 187.42 2065.5
-1043.52 188.26 2074.7
-1042.78 189.10 2084.0
-1031.78 188.08 2072.8
-1024.81 187.79 2069.5
-1027.97 189.36 2086.9
-1024.48 189.72 2090.8
-1024.03 190.64 2101.0
-1023.96 191.65 2112.1
-1037.26 195.18 2151.0
-1062.89 201.09 2216.1
-1086.53 206.68 2277.7
-1082.99 207.13 2282.6
-1065.81 204.96 2258.8
-1083.87 209.59 2309.7
-1122.29 142.38 1615.2
-1088.23 138.58 1572.1
-1055.45 134.91 1530.5
-1025.08 131.52 1492.0
-999.91 128.78 1460.9
-981.02 126.82 1438.8
-968.94 125.74 1426.5
-966.95 125.96 1429.0
-974.44 127.43 1445.6
-955.73 125.46 1423.3
-932.10 122.84 1393.5
-956.69 126.57 1435.8
-988.30 131.26 1489.1
-983.95 131.19 1488.3
-944.51 126.43 1434.3
-928.93 125.33 1421.8
-947.55 128.35 1456.1
-962.78 130.94 1485.4
-974.12 133.01 1509.0
-972.97 133.39 1513.3
-974.48 134.14 1521.8
-966.85 133.63 1516.0
-977.41 135.64 1538.8
-995.88 138.77 1574.3
-996.15 139.38 1581.2
-1005.92 141.33 1603.3
-1013.49 142.98 1622.1
-1006.24 142.55 1617.2
-1002.68 142.64 1618.2
-1006.45 143.78 1631.1
-996.59 142.97 1621.9
-985.19 141.93 1610.2
-995.64 144.05 1634.2
-1010.64 146.84 1665.9
-1026.03 149.72 1698.5
-1015.08 148.76 1687.6
-976.50 143.73 1630.5
-971.85 143.66 1629.8
-992.14 147.30 1671.1
-1000.08 149.14 1691.9
-1004.41 150.44 1706.7
-1007.16 151.52 1718.9
-983.73 148.65 1686.4
-967.94 146.92 1666.7
-995.64 151.80 1722.1
-1011.18 154.87 1756.9
-993.37 152.83 1733.7
-976.14 150.86 1711.4
-980.66 152.25 1727.2
-988.06 154.10 1748.2
-991.94 155.42 1763.2
-992.84 156.28 1772.9
-989.33 156.45 1774.9
-1007.09 160.01 1815.2
-1007.34 160.80 1824.1
-984.97 157.97 1792.1
-1001.49 161.38 1830.7
-1029.29 166.65 1890.5
-1016.47 165.36 1875.9
-992.82 162.29 1841.1
-987.22 162.15 1839.5
-976.46 161.16 1828.3
-972.76 161.34 1830.3
-997.48 166.25 1886.0
-1009.90 169.15 1918.9
-1024.49 172.44 1956.2
-1045.38 176.83 2006.1
-1043.57 177.41 2012.6
-1042.65 178.14 2020.9
-1036.67 178.01 2019.5
-1022.54 176.48 2002.1
-1029.25 178.54 2025.5
-1044.40 182.10 2065.9
-1050.87 184.17 2089.4
-1038.51 182.95 2075.5
-1015.09 179.76 2039.2
-999.78 177.97 2019.0
-993.80 177.84 2017.5
-1006.25 181.02 2053.6
-1022.91 184.99 2098.7
-1019.37 185.34 2102.6
-1028.79 188.06 2133.4
-1045.85 192.21 2180.5
-1058.41 195.58 2218.7
-1081.91 201.01 2280.4
-1096.64 204.87 2324.1
-1081.53 203.16 2304.8
-1053.44 198.98 2257.4
-1071.69 203.56 2309.3
-1068.07 132.51 1548.8
-1036.53 129.08 1508.7
-1011.33 126.42 1477.6
-993.53 124.66 1457.1
-985.90 124.18 1451.4
-988.35 124.96 1460.6
-985.74 125.11 1462.4
-958.10 122.07 1426.8
-940.56 120.30 1406.2
-973.43 124.99 1461.0
-994.52 128.20 1498.4
-980.26 126.86 1482.7
-960.02 124.73 1457.8
-948.62 123.73 1446.2
-955.26 125.09 1462.1
-963.47 126.67 1480.6
-963.48 127.18 1486.5
-960.21 127.26 1487.4
-953.70 126.90 1483.3
-949.36 126.84 1482.5
-965.93 129.58 1514.5
-1003.24 135.13 1579.4
-1008.31 136.37 1593.9
-994.18 135.01 1578.1
-1007.14 137.34 1605.2
-1017.88 139.38 1629.1
-1002.19 137.80 1610.7
-988.66 136.51 1595.6
-1000.85 138.77 1622.0
-999.88 139.22 1627.3
-985.88 137.86 1611.3
-995.80 139.84 1634.4
-1005.63 141.82 1657.6
-1015.37 143.81 1680.9
-1034.78 147.19 1720.4
-1025.86 146.55 1712.9
-989.89 142.03 1660.1
-981.61 141.45 1653.4
-1002.79 145.14 1696.4
-1019.75 148.25 1732.7
-1024.97 149.66 1749.3
-1003.49 147.18 1720.3
-979.12 144.25 1686.0
-996.80 147.51 1724.1
-1004.39 149.30 1745.1
-979.16 146.21 1708.9
-971.86 145.78 1703.9
-985.75 148.54 1736.2
-989.20 149.74 1750.2
-988.20 150.28 1756.5
-999.83 152.75 1785.4
-1007.46 154.63 1807.4
-1024.20 157.94 1846.0
-1023.42 158.56 1853.3
-997.63 155.29 1815.1
-1009.79 157.93 1845.9
-1018.50 160.05 1870.7
-988.61 156.10 1824.5
-989.68 157.02 1835.3
-1008.61 160.79 1879.4
-998.24 159.91 1869.1
-994.46 160.08 1871.1
-1007.45 162.97 1904.8
-1009.61 164.12 1918.3
-1018.20 166.34 1944.2
-1033.12 169.62 1982.5
-1028.15 169.64 1982.9
-1023.17 169.67 1983.2
-1034.58 172.43 2015.4
-1037.69 173.83 2031.7
-1030.79 173.55 2028.5
-1033.79 174.95 2044.9
-1043.45 177.49 2074.6
-1034.68 176.91 2067.8
-1025.49 176.26 2060.1
-1025.18 177.13 2070.3
-1004.99 174.55 2040.2
-1004.24 175.34 2049.5
-1039.25 182.42 2132.2
-1056.52 186.45 2179.2
-1055.40 187.25 2188.6
-1060.27 189.13 2210.6
-1055.60 189.32 2212.8
-1060.74 191.28 2235.7
-1074.71 194.87 2277.7
-1059.28 193.13 2257.3
-1057.85 193.94 2266.8
-1059.85 127.98 1542.6
-1034.58 125.40 1511.6
-1011.10 123.02 1482.9
-997.82 121.87 1469.0
-1002.47 122.91 1481.5
-1003.17 123.47 1488.2
-985.49 121.76 1467.6
-978.42 121.35 1462.8
-981.88 122.26 1473.6
-974.26 121.78 1467.9
-972.70 122.06 1471.3
-965.65 121.66 1466.4
-960.25 121.45 1464.0
-973.96 123.68 1490.8
-972.87 124.03 1495.0
-962.54 123.21 1485.1
-965.77 124.12 1496.0
-965.72 124.61 1502.0
-962.95 124.76 1503.7
-980.56 127.55 1537.5
-1006.60 131.47 1584.7
-999.93 131.14 1580.7
-982.64 129.40 1559.7
-992.45 131.23 1581.8
-1022.27 135.74 1636.1
-1025.01 136.67 1647.3
-1007.21 134.86 1625.5
-1016.72 136.70 1647.7
-1018.32 137.49 1657.3
-1007.90 136.66 1647.3
-1008.93 137.39 1656.0
-1009.93 138.11 1664.7
-1007.79 138.41 1668.3
-1015.41 140.06 1688.2
-1030.12 142.70 1720.1
-1016.61 141.44 1704.9
-996.03 139.18 1677.6
-1003.96 140.91 1698.4
-1017.38 143.42 1728.7
-1018.58 144.22 1738.4
-1012.20 143.96 1735.2
-1003.32 143.33 1727.7
-998.46 143.28 1727.0
-984.65 141.93 1710.8
-979.82 141.87 1710.1
-993.76 144.55 1742.3
-995.27 145.43 1752.9
-984.95 144.58 1742.7
-982.00 144.81 1745.5
-991.23 146.85 1770.0
-1003.75 149.39 1800.7
-1024.37 153.18 1846.3
-1038.53 156.02 1880.6
-1027.10 155.03 1868.7
-1016.66 154.19 1858.5
-1003.41 152.90 1843.0
-993.06 152.05 1832.7
-1012.57 155.78 1877.7
-1029.06 159.08 1917.5
-1016.26 157.87 1902.9
-1008.67 157.45 1897.8
-1018.34 159.74 1925.4
-1032.55 162.77 1961.9
-1054.00 166.97 2012.6
-1045.74 166.49 2006.8
-1015.93 162.55 1959.3
-1011.46 162.65 1960.5
-1022.01 165.17 1990.9
-1030.16 167.33 2017.0
-1028.71 167.95 2024.4
-1024.07 168.05 2025.6
-1025.70 169.19 2039.3
-1029.50 170.69 2057.5
-1032.78 172.13 2074.8
-1047.93 175.57 2116.2
-1044.83 175.97 2121.1
-1016.70 172.14 2074.9
-1022.40 174.02 2097.6
-1055.40 180.60 2176.9
-1073.78 184.74 2226.7
-1088.06 188.20 2268.5
-1094.42 190.33 2294.2
-1084.86 189.70 2286.6
-1083.42 190.49 2296.1
-1094.21 193.45 2331.8
-1119.93 130.52 1624.0
-1057.27 124.15 1544.7
-1023.62 120.65 1501.2
-1014.22 120.00 1493.1
-1023.86 121.61 1513.1
-1008.34 120.22 1495.9
-975.07 116.71 1452.1
-961.92 115.58 1438.1
-961.00 115.92 1442.3
-956.74 115.86 1441.5
-957.44 116.39 1448.2
-960.85 117.27 1459.1
-966.96 118.48 1474.2
-982.29 120.84 1503.5
-980.63 121.11 1506.9
-958.34 118.83 1478.6
-949.14 118.17 1470.3
-959.93 119.99 1493.0
-967.40 121.41 1510.7
-967.30 121.90 1516.7
-975.19 123.39 1535.3
-981.41 124.69 1551.4
-978.00 124.77 1552.4
-993.66 127.29 1583.8
-1028.77 132.33 1646.5
-1040.98 134.46 1673.0
-1033.11 134.00 1667.3
-1037.31 135.11 1681.1
-1034.14 135.27 1683.0
-1006.49 132.21 1645.0
-989.88 130.58 1624.7
-995.08 131.83 1640.2
-997.12 132.66 1650.7
-989.34 132.20 1644.8
-989.27 132.76 1651.9
-1007.06 135.73 1688.9
-1014.51 137.34 1708.8
-993.97 135.14 1681.5
-978.08 133.57 1661.9
-993.53 136.28 1695.7
-1001.30 137.96 1716.5
-995.97 137.83 1715.0
-995.13 138.34 1721.2
-993.76 138.77 1726.6
-1001.30 140.45 1747.6
-1002.32 141.24 1757.3
-990.01 140.14 1743.7
-995.42 141.55 1761.2
-1009.55 144.22 1794.5
-1000.16 143.54 1786.0
-994.19 143.35 1783.6
-1023.56 148.27 1844.9
-1047.38 152.44 1896.7
-1019.58 149.09 1855.0
-992.41 145.80 1814.2
-996.41 147.09 1830.1
-1003.20 148.80 1851.4
-1006.58 150.02 1866.6
-1008.01 150.96 1878.3
-1011.26 152.18 1893.5
-1019.60 154.18 1918.4
-1029.24 156.40 1946.0
-1044.79 159.55 1985.2
-1043.99 160.22 1993.5
-1012.73 156.19 1943.4
-993.14 153.94 1915.3
-998.36 155.52 1935.1
-1000.31 156.61 1948.7
-1000.38 157.42 1958.7
-1019.84 161.30 2007.0
-1036.84 164.83 2050.9
-1031.70 164.86 2051.2
-1028.78 165.25 2056.0
-1036.07 167.28 2081.4
-1055.63 171.33 2131.8
-1067.05 174.10 2166.2
-1053.74 172.83 2150.5
-1038.30 171.21 2130.3
-1049.93 174.05 2165.6
-1061.40 176.90 2201.1
-1068.40 179.03 2227.6
-1092.89 184.13 2291.0
-1103.01 186.85 2324.8
-1084.45 184.71 2298.3
-1075.75 184.25 2292.5
-1060.80 120.55 1549.9
-1030.51 117.55 1511.3
-1026.14 117.50 1510.7
-1032.40 118.67 1525.7
-1012.94 116.88 1502.7
-982.99 113.86 1463.9
-974.26 113.29 1456.5
-977.18 114.07 1466.6
-976.19 114.40 1470.8
-961.98 113.17 1455.1
-950.01 112.21 1442.7
-945.21 112.08 1441.0
-950.23 113.12 1454.4
-984.58 117.68 1513.0
-996.47 119.58 1537.4
-962.81 116.00 1491.4
-949.81 114.90 1477.2
-969.70 117.78 1514.3
-984.07 120.01 1543.0
-977.47 119.69 1538.9
-969.29 119.17 1532.2
-971.23 119.90 1541.6
-993.28 123.13 1583.1
-1019.40 126.90 1631.5
-1021.10 127.64 1641.0
-1017.49 127.72 1642.1
-1026.98 129.45 1664.4
-1033.25 130.79 1681.6
-1013.41 128.82 1656.3
-982.24 125.39 1612.2
-975.04 125.01 1607.2
-991.59 127.67 1641.5
-998.23 129.08 1659.6
-998.65 129.69 1667.5
-1018.45 132.84 1708.0
-1024.35 134.19 1725.3
-1001.73 131.81 1694.7
-973.67 128.68 1654.4
-978.04 129.83 1669.2
-1002.96 133.73 1719.4
-1014.66 135.89 1747.2
-1015.75 136.65 1756.9
-1015.81 137.27 1764.9
-995.50 135.14 1737.5
-967.38 131.92 1696.1
-981.30 134.42 1728.3
-1014.22 139.57 1794.5
-1024.87 141.69 1821.7
-1013.96 140.83 1810.6
-999.21 139.42 1792.6
-1020.33 143.04 1839.1
-1046.10 147.34 1894.3
-1021.18 144.51 1857.9
-989.70 140.72 1809.2
-988.46 141.21 1815.5
-1001.45 143.75 1848.2
-1011.00 145.82 1874.8
-1006.28 145.84 1875.1
-1002.96 146.06 1877.9
-1009.93 147.80 1900.2
-1019.14 149.87 1926.9
-1023.12 151.20 1944.0
-1010.37 150.06 1929.3
-1011.51 150.97 1941.1
-1024.99 153.75 1976.8
-1022.77 154.19 1982.4
-1018.24 154.28 1983.6
-1001.00 152.44 1959.9
-1004.19 153.70 1976.2
-1030.71 158.57 2038.8
-1035.46 160.12 2058.7
-1024.93 159.32 2048.4
-1024.68 160.11 2058.5
-1036.77 162.84 2093.7
-1040.33 164.26 2111.9
-1047.32 166.24 2137.4
-1054.21 168.22 2162.9
-1065.33 170.91 2197.4
-1077.17 173.74 2233.8
-1062.97 172.37 2216.2
-1063.01 173.32 2228.4
-1084.38 177.77 2285.6
-1078.25 177.73 2285.1
-1069.15 177.21 2278.4
-1068.83 117.41 1561.6
-1025.02 113.03 1503.3
-1029.64 113.97 1515.8
-1043.16 115.91 1541.6
-1033.16 115.24 1532.7
-1011.50 113.26 1506.4
-997.15 112.08 1490.8
-995.57 112.34 1494.2
-1003.92 113.73 1512.6
-998.44 113.55 1510.2
-963.87 110.05 1463.7
-938.77 107.61 1431.2
-942.17 108.42 1442.1
-976.01 112.77 1499.8
-1010.72 117.24 1559.4
-998.67 116.31 1547.0
-972.62 113.73 1512.7
-981.13 115.19 1532.1
-988.50 116.53 1549.9
-975.47 115.46 1535.7
-983.83 116.93 1555.2
-1003.81 119.80 1593.4
-991.83 118.86 1580.8
-982.00 118.17 1571.7
-1011.75 122.25 1626.0
-1037.61 125.90 1674.6
-1028.18 125.28 1666.3
-1014.59 124.15 1651.2
-1009.91 124.10 1650.6
-992.77 122.51 1629.5
-987.09 122.33 1627.1
-1007.21 125.36 1667.4
-1006.61 125.83 1673.5
-1000.33 125.58 1670.3
-1017.07 128.24 1705.6
-1021.44 129.35 1720.5
-1022.70 130.08 1730.1
-1019.37 130.23 1732.1
-1006.43 129.14 1717.7
-1014.67 130.78 1739.4
-1012.80 131.12 1744.0
-1000.42 130.10 1730.4
-1006.01 131.42 1747.9
-991.18 130.06 1729.9
-971.48 128.06 1703.2
-995.24 131.79 1752.9
-1012.41 134.68 1791.3
-1008.88 134.83 1793.3
-1010.70 135.70 1804.8
-1009.56 136.17 1811.2
-1015.16 137.57 1829.7
-1024.07 139.43 1854.4
-1005.47 137.54 1829.4
-980.27 134.73 1792.0
-1000.06 138.10 1836.9
-1033.46 143.40 1907.3
-1016.84 141.77 1885.6
-984.73 137.96 1834.9
-988.55 139.16 1851.0
-1003.06 141.90 1887.3
-1002.97 142.58 1896.4
-997.72 142.53 1895.7
-1000.81 143.68 1911.0
-1018.58 146.96 1954.6
-1038.01 150.51 2001.9
-1042.14 151.87 2019.9
-1031.61 151.09 2009.6
-1009.33 148.58 1976.2
-996.21 147.40 1960.5
-1006.12 149.63 1990.1
-1010.06 150.99 2008.2
-997.86 149.94 1994.2
-996.83 150.56 2002.6
-1008.59 153.14 2036.8
-1013.60 154.71 2057.7
-1022.47 156.89 2086.7
-1043.01 160.89 2139.9
-1070.29 165.98 2207.6
-1082.98 168.85 2245.8
-1068.75 167.53 2228.3
-1053.30 166.01 2208.0
-1056.75 167.46 2227.3
-1073.74 171.09 2275.6
-1090.52 174.72 2323.9
-1045.96 111.36 1534.0
-1058.38 113.11 1558.1
-1060.08 113.73 1566.6
-1037.20 111.70 1538.7
-1018.87 110.15 1517.3
-1007.82 109.38 1506.7
-997.92 108.72 1497.7
-999.64 109.34 1506.2
-1011.23 111.04 1529.6
-992.54 109.41 1507.2
-982.14 108.70 1497.3
-1004.53 111.61 1537.5
-995.74 111.08 1530.2
-985.34 110.36 1520.2
-988.51 111.16 1531.3
-978.15 110.44 1521.3
-987.19 111.91 1541.6
-994.54 113.20 1559.4
-987.38 112.84 1554.5
-1003.17 115.12 1585.8
-1011.40 116.54 1605.4
-986.13 114.10 1571.8
-971.56 112.88 1555.0
-997.65 116.39 1603.4
-1023.56 119.92 1651.9
-1012.07 119.07 1640.2
-1020.48 120.56 1660.8
-1036.62 122.99 1694.2
-1036.01 123.44 1700.4
-1045.21 125.07 1722.9
-1033.16 124.16 1710.3
-999.55 120.63 1661.8
-984.58 119.34 1644.0
-994.72 121.10 1668.2
-1013.43 123.91 1707.0
-1028.94 126.36 1740.7
-1012.93 124.94 1721.2
-987.91 122.40 1686.1
-986.66 122.78 1691.4
-976.36 122.04 1681.2
-976.59 122.62 1689.2
-994.20 125.40 1727.4
-1005.22 127.36 1754.4
-1010.68 128.63 1772.0
-999.82 127.83 1760.9
-981.62 126.08 1736.8
-999.73 129.00 1777.0
-1024.02 132.74 1828.6
-1025.25 133.52 1839.3
-1031.77 135.00 1859.7
-1021.32 134.26 1849.5
-982.55 129.77 1787.7
-975.62 129.47 1783.5
-1013.57 135.14 1861.7
-1045.02 140.00 1928.6
-1025.99 138.11 1902.6
-994.78 134.56 1853.6
-998.56 135.73 1869.7
-1011.17 138.11 1902.6
-1009.65 138.58 1909.0
-999.27 137.83 1898.7
-998.18 138.36 1906.0
-1011.81 140.95 1941.6
-1028.06 143.93 1982.7
-1032.23 145.24 2000.7
-1022.65 144.62 1992.2
-1017.65 144.64 1992.5
-1021.68 145.95 2010.6
-1011.67 145.27 2001.1
-996.32 143.80 1980.9
-1001.59 145.31 2001.7
-1018.32 148.51 2045.7
-1019.38 149.44 2058.6
-1013.76 149.40 2058.0
-1009.01 149.48 2059.2
-1016.50 151.39 2085.5
-1042.16 156.05 2149.6
-1052.81 158.49 2183.2
-1060.28 160.48 2210.6
-1068.50 162.60 2239.9
-1080.44 165.31 2277.3
-1039.57 107.95 1542.2
-991.73 103.38 1476.9
-992.97 103.92 1484.5
-995.83 104.62 1494.6
-990.93 104.51 1493.0
-995.94 105.45 1506.5
-1014.63 107.85 1540.8
-1041.95 111.20 1588.5
-1044.52 111.91 1598.8
-1013.29 109.00 1557.1
-990.36 106.96 1528.0
-981.06 106.38 1519.7
-975.03 106.15 1516.5
-988.93 108.10 1544.3
-1012.39 111.12 1587.4
-1018.55 112.25 1603.5
-1021.45 113.03 1614.7
-1016.85 112.98 1614.1
-989.97 110.45 1577.9
-973.81 109.10 1558.6
-999.37 112.43 1606.1
-1022.65 115.53 1650.4
-1014.30 115.07 1643.8
-1025.32 116.81 1668.7
-1055.51 120.76 1725.1
-1066.79 122.57 1751.0
-1062.95 122.65 1752.1
-1038.46 120.34 1719.1
-1013.57 117.96 1685.1
-1007.28 117.73 1681.9
-1020.93 119.85 1712.1
-1044.14 123.11 1758.7
-1026.54 121.56 1736.6
-979.65 116.52 1664.6
-971.90 116.11 1658.7
-987.30 118.48 1692.5
-992.53 119.64 1709.1
-1009.19 122.19 1745.6
-1015.25 123.48 1764.0
-1013.30 123.80 1768.5
-1015.28 124.60 1780.0
-999.46 123.22 1760.3
-990.60 122.69 1752.7
-1016.02 126.42 1806.0
-1039.76 129.97 1856.7
-1040.46 130.66 1866.6
-1019.81 128.67 1838.1
-980.45 124.28 1775.5
-969.22 123.44 1763.4
-987.26 126.33 1804.7
-1007.51 129.54 1850.5
-1021.87 132.01 1885.9
-1019.50 132.34 1890.6
-1005.31 131.13 1873.2
-1002.47 131.39 1877.0
-1008.04 132.77 1896.7
-1023.80 135.50 1935.7
-1031.48 137.19 1959.9
-1025.64 137.09 1958.4
-1036.41 139.22 1988.8
-1038.77 140.23 2003.3
-1028.72 139.58 1993.9
-1036.02 141.28 2018.2
-1048.21 143.66 2052.3
-1032.68 142.26 2032.2
-1003.71 138.98 1985.4
-1006.33 140.06 2000.8
-1030.32 144.14 2059.1
-1033.15 145.29 2075.5
-1019.97 144.18 2059.8
-1010.82 143.64 2052.0
-1001.70 143.10 2044.3
-1011.41 145.26 2075.1
-1040.57 150.24 2146.3
-1046.03 151.84 2169.2
-1048.36 153.00 2185.8
-1066.08 156.44 2234.8
-1087.88 160.51 2292.9
-1084.90 108.49 1609.5
-1029.14 103.31 1532.6
-1027.50 103.55 1536.1
-1025.30 103.73 1538.8
-1015.35 103.12 1529.8
-1015.34 103.52 1535.8
-1029.03 105.33 1562.6
-1031.67 106.02 1572.9
-1007.52 103.95 1542.1
-998.72 103.45 1534.7
-998.63 103.86 1540.7
-999.05 104.32 1547.6
-1003.23 105.18 1560.3
-996.59 104.90 1556.3
-996.94 105.37 1563.2
-1007.97 106.97 1586.9
-1015.71 108.23 1605.6
-1031.88 110.41 1637.9
-1027.24 110.36 1637.3
-997.21 107.58 1596.0
-1007.94 109.19 1619.9
-1047.49 113.95 1690.5
-1053.23 115.06 1706.9
-1028.06 112.78 1673.2
-1022.30 112.63 1670.8
-1030.05 113.96 1690.7
-1022.70 113.63 1685.8
-1020.01 113.82 1688.6
-1016.79 113.95 1690.5
-1022.28 115.06 1707.0
-1046.12 118.26 1754.4
-1044.28 118.56 1758.9
-1003.31 114.41 1697.3
-993.96 113.85 1688.9
-1021.99 117.57 1744.2
-1025.15 118.46 1757.4
-1017.73 118.13 1752.5
-1007.83 117.50 1743.2
-988.50 115.77 1717.5
-982.17 115.55 1714.2
-979.31 115.74 1717.0
-989.74 117.50 1743.2
-1007.43 120.15 1782.5
-1006.86 120.64 1789.7
-1005.27 121.01 1795.1
-1004.15 121.43 1801.5
-979.75 119.04 1765.9
-963.70 117.63 1745.1
-974.16 119.47 1772.4
-984.52 121.32 1799.7
-996.19 123.34 1829.7
-998.23 124.18 1842.3
-985.53 123.19 1827.6
-971.46 122.02 1810.2
-968.28 122.21 1813.0
-986.16 125.07 1855.5
-1012.74 129.07 1914.8
-1031.16 132.07 1959.3
-1035.97 133.34 1978.2
-1041.63 134.74 1998.9
-1038.46 135.00 2002.7
-1011.93 132.21 1961.4
-1001.98 131.57 1951.9
-1024.30 135.19 2005.5
-1019.71 135.27 2006.7
-1009.71 134.63 1997.2
-1031.59 138.25 2051.0
-1032.25 139.06 2063.0
-1011.95 137.03 2032.9
-1006.83 137.06 2033.2
-1005.23 137.56 2040.7
-998.33 137.34 2037.4
-1011.11 139.83 2074.5
-1033.76 143.73 2132.3
-1032.74 144.36 2141.6
-1033.83 145.30 2155.5
-1053.35 148.84 2208.1
-1069.21 151.91 2253.6
-1103.86 106.55 1643.9
-1083.14 104.96 1619.3
-1064.18 103.52 1597.2
-1034.80 101.05 1559.1
-1017.66 99.77 1539.3
-1024.21 100.81 1555.3
-1017.56 100.55 1551.3
-1000.54 99.26 1531.4
-998.84 99.49 1534.9
-984.63 98.46 1519.1
-969.93 97.38 1502.5
-993.09 100.11 1544.6
-1005.33 101.75 1569.9
-994.38 101.05 1559.1
-995.78 101.61 1567.7
-1001.42 102.60 1583.0
-1016.04 104.53 1612.8
-1036.92 107.12 1652.7
-1033.31 107.19 1653.8
-1022.30 106.49 1643.0
-1039.21 108.70 1677.1
-1054.41 110.76 1708.8
-1036.55 109.34 1687.0
-1025.03 108.58 1675.3
-1026.54 109.21 1684.9
-1029.04 109.94 1696.2
-1035.62 111.12 1714.4
-1029.27 110.91 1711.2
-1031.65 111.65 1722.6
-1055.96 114.78 1770.9
-1054.61 115.13 1776.3
-1022.74 112.14 1730.2
-1021.43 112.49 1735.6
-1030.70 114.02 1759.1
-1015.73 112.86 1741.2
-1030.90 115.06 1775.1
-1044.44 117.09 1806.5
-1010.54 113.80 1755.8
-989.74 111.96 1727.4
-980.42 111.41 1718.9
-985.43 112.49 1735.6
-1005.60 115.32 1779.2
-1008.95 116.24 1793.4
-995.16 115.18 1777.1
-981.92 114.18 1761.6
-977.94 114.25 1762.6
-981.20 115.16 1776.8
-981.51 115.74 1785.8
-982.73 116.44 1796.5
-986.30 117.42 1811.6
-981.72 117.43 1811.8
-983.29 118.18 1823.4
-983.39 118.77 1832.4
-969.35 117.64 1815.0
-975.05 118.91 1834.6
-1010.54 123.84 1910.7
-1037.35 127.75 1971.0
-1028.70 127.31 1964.3
-1019.62 126.82 1956.6
-1021.60 127.70 1970.2
-1000.62 125.71 1939.5
-988.44 124.80 1925.5
-1006.27 127.70 1970.2
-1023.92 130.60 2015.0
-1037.77 133.05 2052.7
-1036.67 133.59 2061.1
-1012.73 131.18 2024.0
-999.63 130.16 2008.2
-1001.65 131.11 2022.8
-992.13 130.54 2014.1
-976.50 129.17 1992.9
-992.45 131.97 2036.2
-1019.96 136.36 2103.8
-1035.05 139.12 2146.4
-1055.13 142.59 2199.9
-1065.53 144.77 2233.6
-1070.21 146.20 2255.7
-1091.98 101.98 1638.9
-1027.18 96.30 1547.7
-1026.04 96.57 1552.0
-1050.69 99.28 1595.5
-1030.82 97.79 1571.6
-997.38 94.99 1526.6
-975.53 93.28 1499.1
-939.66 90.21 1449.8
-945.67 91.15 1464.9
-992.13 96.01 1543.1
-1003.29 97.49 1566.7
-990.74 96.66 1553.4
-995.36 97.50 1567.0
-1005.27 98.88 1589.1
-1020.42 100.78 1619.7
-1042.35 103.37 1661.4
-1032.37 102.81 1652.3
-1014.51 101.45 1630.5
-1027.76 103.21 1658.7
-1039.33 104.81 1684.4
-1027.27 104.03 1671.9
-1022.03 103.93 1670.4
-1031.86 105.38 1693.6
-1042.63 106.94 1718.6
-1050.72 108.23 1739.4
-1044.32 108.03 1736.2
-1018.95 105.86 1701.4
-1018.76 106.31 1708.5
-1047.60 109.79 1764.5
-1043.19 109.81 1764.8
-1035.23 109.45 1759.0
-1038.40 110.27 1772.2
-1043.02 111.26 1788.0
-1042.54 112.71 1811.4
-1022.13 111.00 1783.9
-1013.19 110.53 1776.4
-1000.84 109.68 1762.7
-1004.74 110.61 1777.7
-1013.97 112.14 1802.3
-1006.99 111.89 1798.2
-987.39 110.22 1771.4
-976.61 109.53 1760.3
-979.87 110.41 1774.4
-980.19 110.96 1783.4
-984.29 111.96 1799.3
-991.68 113.33 1821.4
-999.92 114.82 1845.4
-1015.17 117.13 1882.5
-1007.13 116.77 1876.6
-984.99 114.76 1844.3
-994.85 116.47 1871.9
-1034.01 121.65 1955.1
-1049.57 124.09 1994.3
-1031.15 122.51 1969.0
-1019.75 121.76 1956.9
-1017.59 122.11 1962.5
-1010.37 121.85 1958.4
-1010.45 122.48 1968.4
-1026.84 125.10 2010.5
-1043.50 127.78 2053.5
-1043.77 128.46 2064.6
-1028.28 127.21 2044.4
-1016.44 126.40 2031.4
-1014.44 126.81 2037.9
-1019.06 128.05 2057.9
-1012.12 127.85 2054.7
-1000.35 127.03 2041.5
-1020.57 130.29 2093.9
-1044.49 134.05 2154.4
-1057.74 136.48 2193.5
-1071.68 139.03 2234.4
-1072.98 139.95 2249.3
-1063.08 139.42 2240.7
-1057.48 139.45 2241.1
-1071.38 142.06 2283.1
-1097.09 98.18 1646.5
-1039.44 93.39 1566.1
-1049.84 94.69 1588.0
-1065.09 96.45 1617.4
-1033.13 93.92 1575.1
-997.49 91.04 1526.8
-972.91 89.15 1495.1
-963.12 88.61 1486.0
-997.24 92.11 1544.8
-1007.90 93.47 1567.6
-980.78 91.33 1531.6
-973.13 90.98 1525.8
-984.23 92.40 1549.5
-987.77 93.11 1561.5
-996.05 94.28 1581.0
-1048.31 99.63 1670.9
-1071.12 102.22 1714.3
-1024.12 98.15 1645.9
-1008.41 97.04 1627.4
-1034.20 99.94 1676.1
-1036.27 100.57 1686.5
-1026.84 100.07 1678.2
-1034.05 101.21 1697.2
-1041.71 102.39 1717.1
-1045.68 103.22 1731.0
-1030.54 102.17 1713.3
-995.46 99.12 1662.2
-995.86 99.59 1670.1
-1027.33 103.18 1730.4
-1029.08 103.81 1740.9
-1026.74 104.03 1744.6
-1026.91 104.51 1752.6
-1030.06 105.29 1765.8
-1052.71 108.09 1812.7
-1044.69 107.75 1807.0
-1022.24 105.91 1776.1
-1020.26 106.18 1780.7
-1010.84 105.68 1772.3
-998.00 104.81 1757.7
-1004.86 106.02 1777.9
-1017.52 107.85 1808.6
-1028.58 109.53 1836.8
-1025.44 109.70 1839.7
-986.91 106.07 1778.8
-962.13 103.89 1742.3
-981.75 106.51 1786.2
-1003.58 109.40 1834.6
-1018.06 111.50 1869.9
-1033.82 113.77 1907.9
-1036.62 114.63 1922.3
-1016.69 112.97 1894.5
-992.64 110.83 1858.6
-1000.13 112.21 1881.8
-1015.46 114.49 1920.0
-1007.38 114.14 1914.1
-1008.58 114.84 1925.9
-1017.57 116.44 1952.7
-1021.39 117.46 1969.8
-1019.65 117.85 1976.3
-1007.38 117.02 1962.4
-1010.62 117.99 1978.7
-1027.80 120.61 2022.6
-1028.58 121.32 2034.6
-1013.60 120.17 2015.3
-1003.61 119.60 2005.7
-1010.57 121.06 2030.2
-1024.95 123.42 2069.8
-1039.61 125.85 2110.5
-1051.01 127.90 2144.9
-1047.83 128.19 2149.8
-1046.80 128.75 2159.2
-1063.94 131.56 2206.3
-1083.91 134.76 2259.9
-1072.69 134.09 2248.6
-1047.38 131.64 2207.6
-1059.32 133.87 2245.0
-1121.55 143.31 2403.3
-1098.31 94.02 1648.4
-1052.81 90.48 1586.3
-1035.07 89.30 1565.7
-1024.55 88.74 1555.8
-1020.63 88.75 1556.0
-1012.89 88.43 1550.3
-989.91 86.76 1521.2
-982.24 86.44 1515.5
-999.51 88.31 1548.3
-992.35 88.03 1543.4
-977.12 87.03 1525.9
-983.97 88.00 1542.8
-981.66 88.15 1545.5
-970.79 87.53 1534.6
-988.17 89.46 1568.5
-1052.14 95.65 1677.0
-1075.47 98.18 1721.3
-1026.34 94.08 1649.5
-1000.63 92.11 1614.9
-1016.48 93.96 1647.4
-1033.77 95.96 1682.4
-1039.98 96.95 1699.7
-1062.23 99.44 1743.5
-1082.24 101.75 1783.9
-1058.71 99.96 1752.6
-1018.30 96.56 1693.0
-1007.37 95.94 1682.1
-1030.76 98.59 1728.6
-1052.94 101.16 1773.5
-1045.46 100.88 1768.6
-1035.47 100.35 1759.5
-1029.55 100.22 1757.1
-1007.53 98.51 1727.2
-1007.19 98.92 1734.3
-1020.31 100.66 1764.8
-1018.87 100.97 1770.2
-1013.43 100.88 1768.7
-1000.07 100.01 1753.4
-999.59 100.42 1760.5
-1018.24 102.76 1801.6
-1018.61 103.27 1810.6
-1016.99 103.58 1816.1
-1036.74 106.08 1859.9
-1021.42 105.01 1841.0
-988.80 102.13 1790.6
-1001.10 103.89 1821.4
-1015.20 105.85 1855.8
-1021.52 107.02 1876.3
-1034.41 108.89 1909.0
-1034.37 109.40 1918.1
-1013.51 107.72 1888.5
-988.52 105.57 1850.9
-983.84 105.58 1851.1
-987.56 106.50 1867.2
-997.73 108.13 1895.8
-1016.57 110.72 1941.1
-1020.92 111.74 1959.1
-1021.06 112.32 1969.2
-1019.31 112.69 1975.7
-1007.05 111.89 1961.8
-1004.38 112.16 1966.5
-1014.35 113.86 1996.2
-1011.58 114.13 2000.9
-994.87 112.82 1978.0
-1004.63 114.52 2007.8
-1033.39 118.41 2076.0
-1021.97 117.71 2063.8
-1010.16 116.97 2050.7
-1043.23 121.43 2129.0
-1064.15 124.53 2183.3
-1057.82 124.45 2181.9
-1068.85 126.42 2216.5
-1081.88 128.66 2255.7
-1064.22 127.24 2230.9
-1056.07 126.96 2225.9
-1116.20 136.42 2391.8
-1143.88 140.59 2464.9
-1125.42 139.88 2452.5
-1114.23 91.40 1678.8
-1106.25 91.10 1673.3
-1058.72 87.53 1607.7
-1019.64 84.63 1554.5
-1020.64 85.05 1562.2
-1006.35 84.20 1546.5
-987.23 82.93 1523.2
-995.82 83.98 1542.6
-1014.60 85.91 1578.0
-1025.70 87.21 1601.7
-1007.17 85.98 1579.2
-978.54 83.88 1540.6
-988.51 85.08 1562.6
-1028.21 88.86 1632.1
-1051.71 91.26 1676.3
-1031.12 89.85 1650.3
-999.54 87.46 1606.4
-991.79 87.14 1600.6
-1005.57 88.73 1629.7
-1019.24 90.31 1658.8
-1017.67 90.56 1663.3
-1033.76 92.38 1696.7
-1061.11 95.23 1749.1
-1044.36 94.13 1728.9
-1014.29 91.81 1686.3
-1015.69 92.34 1696.0
-1034.96 94.50 1735.6
-1051.52 96.43 1771.1
-1047.61 96.49 1772.3
-1041.15 96.32 1769.1
-1046.83 97.27 1786.6
-1034.31 96.54 1773.1
-1014.32 95.09 1746.6
-1008.93 95.01 1745.1
-1021.47 96.63 1774.8
-1030.42 97.91 1798.4
-1010.08 96.42 1770.9
-1001.18 96.00 1763.3
-1017.86 98.05 1800.9
-1016.77 98.40 1807.3
-1001.97 97.41 1789.2
-1009.13 98.57 1810.4
-1021.53 100.24 1841.2
-1017.39 100.31 1842.4
-1013.72 100.42 1844.4
-1012.44 100.76 1850.8
-1004.44 100.44 1844.9
-1002.65 100.74 1850.4
-1012.20 102.19 1877.0
-1001.81 101.63 1866.7
-992.40 101.17 1858.2
-1003.64 102.81 1888.4
-996.08 102.54 1883.3
-994.58 102.89 1889.8
-1009.27 104.92 1927.2
-1009.04 105.42 1936.3
-1008.30 105.87 1944.6
-1005.23 106.08 1948.4
-1003.97 106.48 1955.8
-1011.31 107.80 1980.1
-1013.11 108.55 1993.7
-1002.23 107.93 1982.4
-999.48 108.19 1987.2
-1023.96 111.42 2046.4
-1038.40 113.58 2086.1
-1011.45 111.21 2042.6
-986.01 108.98 2001.7
-1004.24 111.58 2049.5
-1051.58 117.46 2157.5
-1074.07 120.62 2215.4
-1059.43 119.61 2197.0
-1043.13 118.41 2174.9
-1057.46 120.69 2216.7
-1132.03 130.62 2399.1
-1133.65 132.26 2429.2
-1109.04 130.84 2403.2
-1105.14 131.12 2408.3
-1126.95 88.74 1711.3
-1076.73 85.12 1641.5
-1068.82 84.83 1636.0
-1062.58 84.67 1632.9
-1051.99 84.16 1623.1
-1025.17 82.34 1588.0
-1009.83 81.44 1570.6
-1022.57 82.80 1596.8
-1004.58 81.67 1575.1
-998.46 81.51 1571.9
-1031.87 84.58 1631.2
-1023.51 84.24 1624.6
-996.60 82.36 1588.4
-1028.05 85.31 1645.4
-1048.72 87.39 1685.4
-1013.99 84.85 1636.4
-999.90 84.03 1620.5
-1011.49 85.36 1646.2
-1008.39 85.46 1648.1
-1007.35 85.73 1653.4
-1019.76 87.16 1680.9
-1030.00 88.41 1705.1
-1026.24 88.47 1706.2
-1012.72 87.68 1691.0
-1019.71 88.67 1710.1
-1031.23 90.06 1736.9
-1021.79 89.63 1728.6
-1031.63 90.89 1752.9
-1051.48 93.05 1794.6
-1040.46 92.49 1783.6
-1020.95 91.16 1758.0
-1009.53 90.54 1746.1
-1016.59 91.58 1766.3
-1028.04 93.04 1794.3
-1008.70 91.70 1768.5
-995.36 90.90 1753.1
-1007.16 92.40 1782.0
-1020.30 94.04 1813.6
-1019.16 94.37 1819.9
-1017.99 94.70 1826.3
-1021.16 95.44 1840.5
-1009.77 94.81 1828.6
-998.92 94.24 1817.4
-1009.67 95.70 1845.7
-1013.14 96.49 1860.9
-991.33 94.86 1829.5
-980.54 94.28 1818.3
-985.86 95.25 1837.0
-994.39 96.54 1861.9
-1000.47 97.61 1882.4
-987.78 96.84 1867.7
-976.08 96.17 1854.6
-980.65 97.09 1872.5
-990.22 98.53 1900.2
-998.29 99.83 1925.3
-998.47 100.35 1935.3
-999.52 100.96 1947.1
-1003.69 101.90 1965.2
-1002.81 102.33 1973.5
-1007.75 103.36 1993.4
-1020.23 105.18 2028.4
-1016.03 105.29 2030.6
-998.01 103.96 2004.9
-981.87 102.81 1982.8
-968.02 101.90 1965.1
-979.29 103.63 1998.6
-1018.43 108.34 2089.5
-1052.40 112.56 2170.7
-1050.00 112.90 2177.4
-1042.82 112.74 2174.2
-1066.18 115.89 2235.0
-1135.99 124.83 2407.5
-1120.18 125.16 2413.8
-1123.21 84.02 1705.7
-1091.62 81.98 1664.2
-1076.03 81.13 1647.0
-1061.58 80.36 1631.3
-1053.71 80.08 1625.7
-1026.89 78.36 1590.7
-1000.74 76.67 1556.5
-1003.81 77.22 1567.5
-992.86 76.68 1556.7
-995.34 77.19 1567.0
-1052.26 81.94 1663.4
-1063.55 83.16 1688.2
-1007.31 79.09 1605.5
-1011.20 79.72 1618.4
-1061.49 84.03 1706.0
-1054.08 83.80 1701.1
-1027.28 82.01 1664.9
-1026.24 82.27 1670.2
-1013.70 81.61 1656.8
-1005.37 81.29 1650.1
-1013.64 82.30 1670.8
-1019.77 83.16 1688.1
-1041.27 85.28 1731.2
-1052.34 86.56 1757.2
-1036.19 85.60 1737.7
-1027.75 85.27 1731.1
-1022.40 85.20 1729.6
-1035.79 86.70 1760.0
-1049.56 88.24 1791.3
-1029.99 86.98 1765.7
-1010.01 85.67 1739.2
-998.13 85.04 1726.4
-1001.74 85.73 1740.5
-1010.76 86.90 1764.1
-995.43 85.97 1745.2
-985.60 85.51 1735.9
-995.95 86.80 1762.2
-1006.69 88.14 1789.4
-1017.80 89.53 1817.5
-1027.82 90.83 1843.9
-1026.11 91.10 1849.5
-1009.39 90.04 1827.9
-1004.31 90.01 1827.2
-1022.24 92.05 1868.7
-1025.19 92.76 1883.0
-1001.90 91.08 1849.0
-980.17 89.53 1817.6
-975.56 89.54 1817.8
-960.13 88.56 1797.8
-943.84 87.48 1775.9
-954.72 88.92 1805.1
-964.55 90.28 1832.7
-977.51 91.94 1866.5
-994.94 94.05 1909.3
-999.77 94.98 1928.1
-995.83 95.08 1930.2
-996.43 95.62 1941.1
-1001.53 96.59 1960.9
-1006.54 97.57 1980.8
-1017.77 99.17 2013.2
-1020.79 99.97 2029.5
-1004.96 98.93 2008.4
-991.44 98.11 1991.7
-977.98 97.29 1975.0
-979.60 97.96 1988.7
-1008.41 101.37 2058.0
-1028.61 103.96 2110.4
-1041.18 105.79 2147.6
-1050.98 107.36 2179.4
-1057.19 108.58 2204.2
-1076.19 111.13 2256.0
-1124.93 119.41 2424.0
-1111.63 119.33 2422.4
-1127.15 79.88 1711.7
-1090.62 77.59 1662.7
-1070.66 76.48 1638.8
-1068.76 76.64 1642.4
-1073.91 77.32 1656.9
-1056.25 76.36 1636.2
-1038.12 75.35 1614.6
-1043.77 76.06 1629.9
-1035.39 75.76 1623.4
-1020.07 74.94 1605.9
-1060.37 78.22 1676.2
-1081.22 80.09 1716.2
-1032.36 76.79 1645.4
-1003.88 74.98 1606.7
-1024.63 76.85 1646.7
-1022.60 77.02 1650.3
-999.56 75.60 1619.9
-1025.80 77.91 1669.5
-1040.39 79.35 1700.4
-1021.57 78.25 1676.7
-1020.99 78.54 1682.9
-1025.54 79.23 1697.7
-1047.55 81.28 1741.6
-1064.24 82.93 1777.0
-1052.66 82.38 1765.3
-1050.80 82.60 1769.9
-1050.96 82.97 1777.9
-1054.13 83.59 1791.2
-1058.75 84.33 1807.0
-1036.13 82.89 1776.2
-1012.61 81.37 1743.7
-1007.22 81.30 1742.2
-1018.28 82.56 1769.2
-1029.24 83.83 1796.3
-1015.82 83.11 1781.0
-997.53 81.99 1756.9
-999.48 82.53 1768.4
-1009.23 83.71 1793.9
-1020.34 85.03 1822.0
-1020.62 85.45 1831.0
-1008.75 84.85 1818.2
-1010.45 85.39 1829.8
-1023.66 86.91 1862.4
-1031.45 87.99 1885.5
-1024.81 87.84 1882.3
-993.43 85.56 1833.4
-963.66 83.39 1787.0
-977.08 84.96 1820.6
-980.94 85.71 1836.7
-958.47 84.16 1803.4
-962.75 84.95 1820.3
-969.76 85.99 1842.6
-978.53 87.20 1868.5
-991.80 88.82 1903.2
-992.51 89.33 1914.1
-982.18 88.84 1903.7
-977.82 88.89 1904.8
-997.53 91.15 1953.1
-1017.50 93.44 2002.4
-1008.41 93.08 1994.6
-991.26 91.97 1970.8
-999.69 93.24 1997.9
-1009.34 94.63 2027.7
-1005.57 94.77 2030.7
-1016.78 96.33 2064.1
-1026.09 97.72 2094.1
-1022.58 97.91 2098.0
-1033.44 99.48 2131.6
-1041.54 100.79 2159.9
-1030.94 100.31 2149.4
-1030.70 100.83 2160.6
-1047.54 103.04 2207.9
-1063.32 105.16 2253.5
-1122.52 112.88 2418.8
-1095.20 74.47 1689.7
-1034.12 70.60 1601.9
-1044.15 71.57 1624.0
-1079.42 74.29 1685.6
-1062.35 73.41 1665.7
-1037.84 72.01 1633.9
-1054.58 73.47 1667.1
-1052.55 73.64 1670.7
-1019.17 71.59 1624.4
-1009.26 71.19 1615.3
-1024.72 72.58 1646.9
-1017.42 72.37 1642.0
-988.63 70.62 1602.2
-1011.24 72.54 1645.8
-1043.60 75.17 1705.6
-1042.46 75.41 1711.0
-1038.18 75.42 1711.3
-1040.61 75.92 1722.7
-1045.58 76.62 1738.3
-1046.37 77.01 1747.2
-1051.72 77.74 1763.8
-1064.67 79.04 1793.3
-1066.82 79.54 1804.8
-1071.96 80.28 1821.5
-1070.46 80.52 1827.0
-1041.75 78.71 1785.9
-1033.27 78.42 1779.2
-1041.82 79.42 1802.0
-1032.33 79.05 1793.6
-1022.87 78.68 1785.2
-1021.36 78.92 1790.7
-1015.87 78.86 1789.2
-1011.37 78.87 1789.5
-1015.69 79.57 1805.4
-1023.84 80.58 1828.3
-1021.69 80.78 1832.9
-1003.03 79.68 1807.9
-997.50 79.61 1806.3
-1004.98 80.59 1828.5
-1007.56 81.18 1841.9
-1009.14 81.69 1853.5
-983.52 80.00 1815.1
-955.43 78.47 1780.3
-992.79 81.93 1858.9
-1004.98 83.34 1890.9
-993.68 82.81 1878.8
-986.60 82.62 1874.6
-985.57 82.94 1881.9
-989.59 83.70 1899.0
-987.09 83.90 1903.7
-974.02 83.21 1887.9
-982.47 84.35 1913.9
-1015.35 87.62 1988.0
-1025.29 88.93 2017.7
-1005.79 87.68 1989.5
-1000.33 87.66 1988.9
-1018.12 89.68 2034.7
-1017.01 90.05 2043.1
-1002.56 89.23 2024.6
-1012.90 90.63 2056.3
-1020.92 91.83 2083.5
-1015.24 91.80 2082.9
-1020.02 92.73 2103.9
-1040.33 95.08 2157.4
-1044.86 96.01 2178.5
-1035.96 95.71 2171.7
-1041.22 96.73 2194.6
-1045.94 97.70 2216.7
-1065.85 100.11 2271.4
-1130.62 107.38 2436.3
-1122.42 108.42 2459.8
-1084.96 69.44 1673.9
-1028.78 66.11 1593.6
-1049.09 67.68 1631.7
-1055.26 68.36 1647.9
-1004.93 65.36 1575.7
-1003.63 65.54 1580.1
-1046.11 68.60 1653.7
-1053.17 69.34 1671.7
-1028.28 67.99 1638.9
-1006.16 66.80 1610.3
-1010.54 67.37 1624.1
-1010.13 67.62 1630.2
-988.18 66.43 1601.5
-1022.31 69.02 1663.8
-1066.64 72.31 1743.3
-1033.70 70.38 1696.7
-1000.94 68.44 1649.9
-1020.03 70.04 1688.6
-1040.51 71.76 1729.9
-1042.86 72.23 1741.3
-1050.79 73.10 1762.2
-1074.45 75.07 1809.7
-1064.44 75.03 1808.7
-1036.20 73.36 1768.5
-1020.69 72.58 1749.8
-1026.84 73.35 1768.1
-1045.91 75.04 1809.1
-1045.88 75.38 1817.2
-1031.90 74.71 1801.0
-1026.89 74.68 1800.4
-1025.83 74.95 1806.7
-1027.19 75.39 1817.4
-1013.82 74.75 1802.0
-1005.86 74.51 1796.2
-1009.12 75.10 1810.4
-994.87 74.38 1793.2
-991.79 74.50 1796.0
-1002.66 75.67 1824.2
-1002.85 76.05 1833.2
-1002.05 76.35 1840.5
-1001.22 76.65 1847.8
-988.03 76.00 1832.2
-972.52 75.17 1812.2
-985.35 76.53 1845.0
-1001.78 78.19 1884.9
-996.56 78.16 1884.3
-989.48 77.99 1880.1
-989.37 78.37 1889.2
-988.29 78.67 1896.5
-980.27 78.42 1890.5
-975.03 78.39 1889.9
-990.77 80.06 1930.1
-1012.26 82.21 1981.9
-1010.89 82.52 1989.4
-1003.18 82.31 1984.3
-1009.85 83.29 2007.8
-1014.63 84.11 2027.8
-999.29 83.27 2007.5
-985.35 82.54 1989.9
-995.77 83.85 2021.5
-1028.04 87.03 2098.0
-1049.04 89.28 2152.3
-1044.09 89.33 2153.6
-1053.88 90.66 2185.5
-1068.73 92.43 2228.2
-1073.49 93.35 2250.3
-1076.86 94.15 2269.7
-1090.57 96.40 2324.0
-1111.83 98.83 2382.5
-1137.03 101.63 2450.1
-1126.55 101.83 2454.9
-1109.25 100.84 2431.0
-1121.89 67.05 1724.0
-1098.63 65.92 1695.0
-1068.96 64.40 1655.9
-1059.98 64.11 1648.6
-1035.39 62.88 1616.9
-993.18 60.56 1557.3
-999.41 61.19 1573.4
-1027.49 63.17 1624.3
-1021.81 63.07 1621.9
-1024.11 63.48 1632.3
-1026.89 63.91 1643.5
-1012.73 63.30 1627.6
-992.84 62.31 1602.3
-988.78 62.32 1602.5
-1041.23 65.90 1694.6
-1068.81 67.93 1746.8
-1019.74 65.09 1673.7
-996.87 63.90 1643.2
-1025.79 66.04 1698.1
-1029.26 66.55 1711.2
-1014.69 65.89 1694.3
-1019.64 66.50 1710.0
-1041.88 68.25 1754.9
-1066.99 70.20 1805.1
-1055.91 69.77 1794.2
-1026.17 68.11 1751.4
-1011.71 67.45 1734.4
-1012.86 67.83 1744.1
-1028.98 69.21 1779.8
-1030.50 69.63 1790.4
-1019.06 69.17 1778.6
-1016.57 69.31 1782.3
-1018.50 69.76 1793.8
-1029.73 70.85 1821.9
-1028.11 71.07 1827.4
-998.13 69.31 1782.4
-979.52 68.34 1757.3
-983.80 68.96 1773.2
-998.63 70.33 1808.4
-1009.96 71.46 1837.5
-1010.61 71.84 1847.4
-1002.13 71.58 1840.7
-993.21 71.28 1833.0
-987.63 71.22 1831.5
-978.27 70.89 1822.9
-976.48 71.10 1828.4
-977.48 71.52 1839.2
-984.50 72.39 1861.4
-990.96 73.22 1882.9
-989.91 73.51 1890.2
-987.44 73.69 1894.9
-984.49 73.84 1898.7
-983.81 74.16 1906.9
-973.51 73.75 1896.5
-967.79 73.69 1894.9
-995.58 76.19 1959.2
-1018.59 78.35 2014.8
-1006.34 77.81 2000.8
-991.91 77.09 1982.3
-983.34 76.82 1975.5
-977.45 76.76 1973.9
-981.28 77.47 1992.1
-1006.14 79.85 2053.4
-1046.50 83.50 2147.1
-1063.36 85.30 2193.3
-1062.65 85.70 2203.7
-1067.95 86.59 2226.6
-1065.83 86.89 2234.3
-1061.10 86.98 2236.5
-1083.23 89.28 2295.7
-1118.26 92.67 2383.0
-1129.25 94.10 2419.8
-1124.25 62.96 1734.6
-1098.85 61.78 1702.2
-1095.73 61.86 1704.2
-1088.29 61.68 1699.5
-1061.51 60.41 1664.4
-1038.60 59.35 1635.1
-1038.78 59.60 1642.1
-1023.48 58.97 1624.6
-1018.87 58.94 1623.9
-1056.62 61.38 1691.1
-1073.53 62.62 1725.3
-1056.08 61.86 1704.4
-1051.31 61.84 1703.8
-1051.76 62.13 1711.7
-1030.80 61.15 1684.7
-1040.10 61.96 1707.1
-1072.12 64.14 1767.2
-1077.55 64.75 1783.8
-1057.66 63.82 1758.4
-1027.61 62.28 1715.9
-1016.13 61.85 1704.1
-1033.79 63.20 1741.3
-1054.86 64.77 1784.5
-1053.96 65.00 1790.9
-1033.83 64.04 1764.4
-1020.34 63.49 1749.2
-1023.98 64.00 1763.2
-1018.55 63.94 1761.7
-1001.16 63.14 1739.5
-996.77 63.14 1739.7
-1000.30 63.66 1753.8
-990.45 63.32 1744.4
-990.47 63.61 1752.5
-1018.38 65.70 1810.2
-1018.23 66.00 1818.3
-995.65 64.83 1786.2
-996.48 65.19 1796.1
-996.78 65.52 1805.0
-993.18 65.59 1807.0
-1003.49 66.58 1834.4
-1004.60 66.97 1845.2
-988.52 66.22 1824.3
-975.84 65.68 1809.6
-980.71 66.33 1827.4
-991.62 67.39 1856.7
-979.43 66.89 1842.8
-972.89 66.77 1839.5
-977.54 67.42 1857.4
-974.68 67.55 1861.1
-978.28 68.14 1877.3
-980.89 68.66 1891.7
-977.93 68.80 1895.5
-964.91 68.23 1879.7
-960.14 68.23 1879.9
-989.32 70.67 1946.9
-1008.75 72.42 1995.3
-993.84 71.72 1976.0
-997.80 72.38 1994.1
-1008.80 73.56 2026.6
-999.70 73.28 2018.8
-1000.35 73.71 2030.8
-1007.54 74.63 2056.2
-1026.88 76.47 2106.8
-1049.49 78.57 2164.7
-1055.79 79.47 2189.4
-1058.96 80.14 2207.9
-1054.73 80.25 2211.0
-1059.48 81.05 2233.1
-1091.85 83.99 2314.0
-1117.93 86.47 2382.3
-1117.93 86.95 2395.6
-1112.40 87.00 2397.0
-1108.53 87.19 2402.1
-1132.57 89.58 2468.1
-1102.18 57.54 1707.3
-1105.53 57.95 1719.4
-1104.53 58.13 1724.8
-1076.09 56.87 1687.2
-1052.07 55.82 1656.3
-1054.35 56.17 1666.7
-1038.47 55.56 1648.4
-1008.84 54.19 1608.0
-1023.32 55.20 1637.8
-1058.28 57.32 1700.8
-1056.15 57.45 1704.5
-1044.03 57.03 1692.0
-1037.18 56.89 1688.0
-1022.00 56.30 1670.3
-1037.57 57.40 1703.0
-1077.89 59.88 1776.7
-1091.57 60.90 1807.0
-1086.07 60.86 1805.7
-1069.79 60.20 1786.3
-1037.70 58.65 1740.2
-1035.90 58.81 1744.8
-1056.96 60.27 1788.1
-1056.06 60.48 1794.4
-1041.48 59.91 1777.5
-1033.00 59.68 1770.9
-1042.12 60.48 1794.5
-1040.63 60.66 1799.9
-1020.68 59.77 1773.4
-1012.74 59.57 1767.6
-1015.72 60.02 1780.8
-1005.32 59.68 1770.6
-997.91 59.51 1765.6
-1018.94 61.04 1811.2
-1027.09 61.82 1834.1
-1013.73 61.30 1818.6
-1004.31 61.01 1810.2
-993.46 60.63 1799.0
-992.77 60.88 1806.3
-1006.92 62.04 1840.7
-1003.71 62.13 1843.6
-983.35 61.17 1814.8
-974.02 60.88 1806.2
-982.20 61.68 1830.2
-1003.46 63.33 1878.9
-1000.14 63.42 1881.8
-986.98 62.90 1866.1
-984.59 63.05 1870.8
-977.07 62.88 1865.7
-974.66 63.04 1870.3
-980.04 63.70 1890.1
-979.83 64.01 1899.2
-975.48 64.05 1900.3
-979.76 64.65 1918.3
-980.79 65.05 1930.1
-971.39 64.76 1921.4
-974.16 65.28 1936.8
-996.98 67.15 1992.5
-1010.21 68.40 2029.4
-1001.99 68.20 2023.5
-1008.82 69.02 2048.0
-1021.69 70.27 2085.1
-1027.39 71.04 2107.9
-1034.31 71.90 2133.4
-1033.29 72.22 2142.8
-1026.62 72.14 2140.4
-1038.02 73.34 2176.0
-1061.70 75.42 2237.8
-1071.45 76.53 2270.7
-1071.30 76.94 2283.0
-1076.59 77.75 2307.0
-1077.56 78.26 2322.0
-1068.83 78.06 2316.1
-1087.63 79.88 2370.1
-1125.70 83.15 2467.0
-1093.03 52.68 1693.2
-1051.00 50.85 1634.6
-1058.23 51.41 1652.5
-1035.84 50.53 1624.1
-1014.08 49.67 1596.5
-1020.74 50.20 1613.6
-1041.19 51.42 1652.7
-1044.50 51.79 1664.8
-1013.85 50.48 1622.6
-1005.54 50.28 1616.0
-1024.10 51.42 1652.8
-1030.44 51.96 1670.0
-1034.63 52.39 1683.8
-1033.54 52.55 1689.2
-1013.70 51.76 1663.8
-1020.40 52.33 1682.0
-1057.52 54.46 1750.7
-1076.35 55.67 1789.5
-1080.13 56.11 1803.5
-1066.95 55.67 1789.3
-1045.15 54.77 1760.4
-1047.36 55.12 1771.9
-1050.54 55.54 1785.1
-1039.52 55.20 1774.1
-1041.63 55.55 1785.7
-1059.76 56.77 1824.8
-1069.22 57.54 1849.4
-1058.64 57.22 1839.3
-1031.19 55.99 1799.8
-1014.80 55.35 1779.2
-1018.71 55.82 1794.2
-1026.01 56.48 1815.4
