ply
format ascii 1.0
element vertex 2177
property float x
property float y
property float z
end_header
529.68 -490.05 1389.8
529.47 -486.54 1379.9
529.55 -483.34 1370.8
531.65 -482.03 1367.1
533.38 -480.40 1362.5
533.70 -477.52 1354.3
536.78 -477.14 1353.2
557.12 -492.00 1395.4
571.63 -501.56 1422.5
560.95 -489.03 1387.0
546.52 -473.42 1342.7
552.44 -475.52 1348.6
569.24 -486.90 1380.9
573.81 -487.74 1383.3
563.00 -475.57 1348.8
556.81 -467.45 1325.7
569.78 -475.40 1348.3
577.25 -478.70 1357.7
570.18 -469.97 1332.9
563.75 -461.87 1309.9
564.39 -459.62 1303.6
579.82 -469.38 1331.2
594.61 -478.50 1357.1
593.77 -475.02 1347.2
590.19 -469.39 1331.3
590.80 -467.14 1324.9
608.13 -478.07 1355.9
624.02 -487.74 1383.3
609.75 -473.86 1343.9
598.46 -462.45 1311.6
606.49 -466.00 1321.6
616.15 -470.77 1335.2
614.25 -466.69 1323.6
611.08 -461.71 1309.5
633.75 -476.19 1350.5
650.50 -486.09 1378.6
634.28 -471.38 1336.9
623.63 -460.94 1307.3
630.15 -463.25 1313.8
638.77 -467.06 1324.6
649.10 -472.07 1338.9
658.65 -476.47 1351.3
658.60 -473.91 1344.1
634.08 -453.87 1287.2
619.47 -441.09 1251.0
634.03 -449.11 1273.7
638.01 -449.58 1275.1
639.86 -448.56 1272.2
657.18 -458.34 1299.9
665.97 -462.10 1310.6
668.73 -461.66 1309.3
679.76 -466.91 1324.2
681.22 -465.56 1320.4
664.22 -451.67 1281.0
658.96 -445.86 1264.5
667.79 -449.60 1275.1
671.34 -449.76 1275.6
666.84 -444.56 1260.8
658.70 -436.99 1239.4
636.08 -419.93 1191.0
625.89 -411.21 1166.3
653.23 -427.11 1211.3
669.83 -435.87 1236.2
658.20 -426.26 1208.9
644.63 -415.50 1178.4
656.71 -421.28 1194.8
691.94 -441.80 1253.0
697.74 -443.42 1257.6
680.75 -430.61 1221.3
680.89 -428.71 1215.9
683.35 -428.28 1214.6
682.98 -426.08 1208.4
699.58 -434.44 1232.1
707.27 -437.22 1240.0
722.12 -444.38 1260.3
770.92 -472.28 1339.4
804.72 -490.77 1391.9
821.42 -498.72 1414.4
845.45 -511.03 1449.3
865.26 -520.69 1476.7
301.28 -565.42 1591.9
288.56 -534.22 1504.1
289.27 -528.40 1487.7
292.63 -527.51 1485.2
297.65 -529.58 1491.0
300.07 -527.04 1483.8
295.25 -512.01 1441.5
295.20 -505.54 1423.3
305.16 -516.14 1453.2
314.09 -524.76 1477.4
314.59 -519.26 1461.9
311.39 -507.87 1429.9
312.30 -503.36 1417.2
318.91 -508.03 1430.3
325.37 -512.36 1442.5
329.99 -513.74 1446.4
330.39 -508.58 1431.9
324.27 -493.61 1389.7
324.45 -488.45 1375.2
334.42 -497.99 1402.1
346.07 -509.81 1435.3
348.27 -507.58 1429.1
347.26 -500.79 1409.9
352.55 -503.12 1416.5
353.27 -498.94 1404.7
353.92 -494.76 1393.0
361.80 -500.67 1409.6
368.81 -505.26 1422.5
368.69 -500.10 1408.0
366.08 -491.70 1384.3
369.70 -491.74 1384.5
373.57 -492.10 1385.5
372.96 -486.63 1370.1
378.30 -488.93 1376.6
392.26 -502.24 1414.0
398.75 -505.82 1424.1
399.11 -501.64 1412.3
405.12 -504.56 1420.6
413.79 -510.71 1437.9
406.97 -497.81 1401.5
390.92 -473.95 1334.4
399.76 -480.42 1352.6
420.06 -500.41 1408.9
419.62 -495.59 1395.3
405.65 -474.99 1337.3
399.16 -463.43 1304.8
408.14 -469.88 1322.9
420.58 -480.17 1351.9
422.96 -478.89 1348.3
424.74 -476.96 1342.9
425.63 -474.08 1334.7
424.45 -468.95 1320.3
439.85 -482.08 1357.3
451.31 -490.71 1381.6
453.09 -488.77 1376.1
463.81 -496.42 1397.6
471.01 -500.22 1408.3
470.09 -495.40 1394.8
470.93 -492.50 1386.6
473.88 -491.83 1384.7
475.90 -490.21 1380.2
474.46 -485.09 1365.7
476.09 -483.14 1360.3
480.21 -483.75 1362.0
483.39 -483.39 1361.0
495.82 -492.23 1385.8
508.05 -500.74 1409.8
503.88 -493.08 1388.2
499.28 -485.12 1365.8
502.45 -484.75 1364.8
504.94 -483.75 1362.0
508.08 -483.38 1360.9
517.23 -488.69 1375.9
522.08 -489.89 1379.3
522.20 -486.68 1370.2
527.39 -488.19 1374.5
532.93 -490.01 1379.6
539.18 -492.45 1386.5
544.77 -494.26 1391.6
548.63 -494.49 1392.2
556.00 -497.86 1401.7
551.09 -490.26 1380.3
538.99 -476.40 1341.3
551.65 -484.46 1364.0
560.46 -489.06 1376.9
548.44 -475.55 1338.9
547.12 -471.41 1327.2
553.01 -473.52 1333.2
544.30 -463.16 1304.0
552.74 -467.44 1316.0
580.84 -488.19 1374.5
583.92 -487.78 1373.3
572.40 -475.26 1338.1
566.74 -467.73 1316.9
567.02 -465.16 1309.6
571.07 -465.69 1311.1
573.59 -464.98 1309.1
586.46 -472.62 1330.6
597.11 -478.38 1346.9
591.94 -471.49 1327.4
603.43 -477.86 1345.4
624.77 -491.91 1385.0
615.62 -481.94 1356.9
598.44 -465.83 1311.5
600.12 -464.50 1307.8
614.54 -472.99 1331.7
618.24 -473.18 1332.2
601.41 -457.74 1288.7
609.46 -461.30 1298.8
642.74 -483.82 1362.2
643.24 -481.55 1355.8
640.43 -476.84 1342.5
653.61 -484.03 1362.7
641.24 -472.31 1329.8
629.96 -461.52 1299.4
641.51 -467.48 1316.2
643.48 -466.44 1313.2
640.81 -462.06 1300.9
648.24 -464.97 1309.1
653.57 -466.35 1313.0
649.53 -461.07 1298.1
644.14 -454.88 1280.7
655.02 -460.19 1295.6
678.05 -473.95 1334.4
694.31 -482.84 1359.4
688.02 -476.05 1340.3
671.16 -462.05 1300.9
669.05 -458.30 1290.3
678.36 -462.36 1301.8
679.75 -461.02 1298.0
674.45 -455.17 1281.5
676.67 -454.43 1279.4
675.29 -451.29 1270.6
669.38 -445.17 1253.3
677.38 -448.32 1262.2
682.25 -449.37 1265.2
674.85 -442.37 1245.5
665.54 -434.18 1222.4
653.38 -424.23 1194.4
658.58 -425.59 1198.2
686.88 -441.80 1243.8
703.78 -450.55 1268.5
697.06 -444.17 1250.5
697.73 -442.54 1245.9
700.25 -442.09 1244.7
691.48 -434.56 1223.5
700.55 -438.25 1233.9
713.93 -444.58 1251.7
736.87 -456.79 1286.1
777.59 -479.86 1351.0
797.51 -489.95 1379.4
818.99 -500.90 1410.2
849.74 -517.39 1456.7
887.43 -537.96 1514.6
310.37 -594.88 1662.7
301.40 -569.76 1592.5
292.24 -544.99 1523.3
292.28 -537.80 1503.2
295.32 -536.24 1498.8
301.47 -540.30 1510.2
304.88 -539.40 1507.6
297.67 -519.97 1453.3
295.35 -509.49 1424.0
300.46 -511.90 1430.8
305.21 -513.64 1435.6
312.75 -520.00 1453.4
315.97 -519.09 1450.9
316.73 -514.22 1437.3
323.38 -518.92 1450.4
323.66 -513.39 1434.9
322.59 -505.89 1414.0
328.64 -509.58 1424.3
328.09 -503.07 1406.1
331.35 -502.48 1404.5
344.89 -517.34 1446.0
350.23 -519.70 1452.6
345.98 -507.93 1419.7
344.51 -500.44 1398.7
349.54 -502.47 1404.4
353.45 -502.85 1405.5
357.60 -503.56 1407.5
365.04 -508.84 1422.2
371.13 -512.16 1431.5
372.23 -508.60 1421.5
371.60 -502.75 1405.2
373.56 -500.50 1398.9
375.99 -498.91 1394.5
378.64 -497.64 1390.9
387.78 -504.84 1411.1
399.29 -514.97 1439.4
402.78 -514.66 1438.5
400.86 -507.52 1418.5
403.78 -506.56 1415.8
414.52 -515.35 1440.4
409.82 -504.96 1411.4
399.93 -488.41 1365.1
413.40 -500.43 1398.7
422.71 -507.25 1417.8
412.49 -490.72 1371.6
412.48 -486.52 1359.8
420.17 -491.38 1373.4
415.92 -482.33 1348.1
415.49 -477.81 1335.5
419.52 -478.46 1337.3
423.28 -478.79 1338.2
434.23 -487.18 1361.7
442.68 -492.66 1377.0
441.57 -487.49 1362.5
438.03 -479.75 1340.9
438.84 -476.85 1332.8
448.55 -483.59 1351.7
460.75 -492.89 1377.7
464.60 -493.19 1378.5
463.88 -488.67 1365.8
466.17 -487.36 1362.2
469.99 -487.65 1363.0
470.38 -484.42 1354.0
468.85 -479.27 1339.6
469.15 -476.05 1330.6
477.96 -481.45 1345.7
495.78 -495.78 1385.7
510.25 -506.58 1415.9
509.01 -501.74 1402.4
502.82 -492.12 1375.5
504.37 -490.16 1370.0
507.87 -490.11 1369.9
512.69 -491.33 1373.3
520.52 -495.39 1384.6
524.38 -495.65 1385.4
520.47 -488.61 1365.7
521.23 -486.01 1358.4
528.10 -489.11 1367.1
534.66 -491.89 1374.8
541.61 -494.98 1383.5
547.20 -496.80 1388.6
544.06 -490.72 1371.6
527.12 -472.35 1320.2
517.37 -460.63 1287.5
533.10 -471.59 1318.1
552.90 -485.99 1358.4
551.65 -481.82 1346.7
546.36 -474.20 1325.4
548.98 -473.50 1323.4
542.81 -465.27 1300.4
553.82 -471.77 1318.6
573.78 -485.78 1357.8
569.01 -478.80 1338.3
564.52 -472.15 1319.7
565.21 -469.87 1313.3
564.36 -466.35 1303.5
566.11 -465.02 1299.7
570.90 -466.18 1303.0
586.81 -476.35 1331.4
598.23 -482.78 1349.4
593.46 -476.15 1330.9
590.56 -471.08 1316.7
596.97 -473.46 1323.3
605.37 -477.38 1334.3
605.13 -474.48 1326.2
596.13 -464.78 1299.1
600.16 -465.30 1300.5
616.21 -475.07 1327.8
612.66 -469.71 1312.8
605.41 -461.58 1290.1
621.60 -471.32 1317.4
624.45 -470.89 1316.2
624.01 -468.01 1308.1
635.88 -474.33 1325.8
622.61 -461.94 1291.1
623.30 -459.98 1285.7
646.91 -474.86 1327.3
652.69 -476.56 1332.0
653.42 -474.59 1326.5
651.18 -470.49 1315.0
647.61 -465.47 1301.0
653.36 -467.17 1305.7
657.83 -467.94 1307.9
658.02 -465.68 1301.6
671.56 -472.83 1321.6
681.71 -477.54 1334.7
668.42 -465.87 1302.1
663.72 -460.27 1286.5
675.19 -465.88 1302.2
681.88 -468.15 1308.5
680.18 -464.68 1298.8
682.00 -463.63 1295.8
691.38 -467.70 1307.2
683.80 -460.31 1286.6
672.54 -450.53 1259.3
682.80 -455.20 1272.3
689.50 -457.46 1278.6
679.41 -448.61 1253.9
666.93 -438.27 1225.0
668.53 -437.24 1222.1
687.11 -447.27 1250.1
702.12 -454.90 1271.4
705.64 -455.04 1271.8
704.97 -452.49 1264.7
712.20 -455.02 1271.8
729.76 -464.09 1297.1
738.49 -467.48 1306.6
729.81 -459.88 1285.4
722.46 -453.18 1266.7
741.62 -463.10 1294.4
777.57 -483.35 1351.0
797.96 -493.81 1380.2
819.43 -504.83 1411.0
850.65 -521.73 1458.2
310.30 -599.05 1662.3
300.63 -572.43 1588.4
286.86 -538.82 1495.2
283.41 -525.25 1457.5
291.80 -533.69 1481.0
302.53 -546.12 1515.4
307.63 -548.21 1521.2
301.40 -530.32 1471.6
299.14 -519.76 1442.3
304.49 -522.51 1449.9
306.73 -519.94 1442.8
312.11 -522.69 1450.4
317.73 -525.76 1458.9
320.95 -524.84 1456.4
321.69 -519.94 1442.8
316.55 -505.76 1403.4
311.64 -492.25 1365.9
313.75 -490.01 1359.7
326.97 -504.99 1401.3
344.31 -525.92 1459.4
352.94 -533.25 1479.7
353.50 -528.34 1466.1
350.63 -518.48 1438.7
350.33 -512.59 1422.4
354.51 -513.30 1424.4
358.01 -513.03 1423.6
360.11 -510.77 1417.3
364.99 -512.46 1422.0
373.92 -519.75 1442.3
377.93 -520.11 1443.3
373.48 -508.96 1412.3
371.57 -501.44 1391.4
374.47 -500.49 1388.8
377.35 -499.54 1386.2
382.72 -501.87 1392.7
390.65 -507.48 1408.2
398.14 -512.42 1421.9
400.30 -510.47 1416.5
394.40 -498.38 1383.0
395.65 -495.45 1374.8
401.60 -498.42 1383.1
402.28 -494.84 1373.1
409.33 -499.10 1385.0
412.39 -498.46 1383.2
405.10 -485.42 1347.0
408.05 -484.78 1345.2
415.98 -490.01 1359.7
412.54 -481.87 1337.2
414.61 -480.26 1332.7
420.62 -483.19 1340.8
420.11 -478.65 1328.2
426.43 -481.90 1337.2
437.13 -490.01 1359.7
438.32 -487.41 1352.5
435.35 -480.27 1332.7
436.14 -477.35 1324.6
442.25 -480.26 1332.7
451.40 -486.39 1349.7
460.02 -491.87 1364.9
463.84 -492.17 1365.7
462.45 -486.98 1351.3
462.54 -483.40 1341.4
471.89 -489.50 1358.3
479.14 -493.34 1369.0
473.52 -483.97 1343.0
476.02 -482.97 1340.2
488.71 -492.25 1366.0
497.99 -497.99 1381.9
494.41 -490.88 1362.2
486.19 -479.30 1330.0
495.16 -484.70 1345.0
507.16 -492.98 1368.0
511.65 -493.88 1370.5
519.48 -497.98 1381.9
524.67 -499.51 1386.1
522.79 -494.34 1371.8
520.51 -488.85 1356.5
523.27 -488.15 1354.6
530.49 -491.59 1364.1
538.10 -495.34 1374.5
536.37 -490.50 1361.1
524.79 -476.77 1323.0
525.33 -474.16 1315.8
533.97 -478.85 1328.8
538.41 -479.74 1331.2
548.21 -485.36 1346.8
547.30 -481.48 1336.1
543.08 -474.77 1317.4
543.50 -472.17 1310.2
536.21 -462.94 1284.6
538.73 -462.24 1282.7
549.73 -468.78 1300.8
551.52 -467.45 1297.1
553.67 -466.42 1294.3
569.31 -476.71 1322.8
583.20 -485.41 1347.0
575.57 -476.22 1321.5
571.26 -469.85 1303.8
576.83 -471.64 1308.8
578.95 -470.61 1305.9
582.99 -471.14 1307.4
588.98 -473.22 1313.2
600.85 -479.99 1331.9
615.55 -488.92 1356.7
609.05 -481.01 1334.8
594.13 -466.58 1294.7
596.16 -465.54 1291.8
610.58 -474.14 1315.7
617.06 -476.51 1322.3
619.53 -475.77 1320.2
621.58 -474.72 1317.3
609.34 -462.84 1284.3
605.57 -457.47 1269.4
613.65 -461.07 1279.4
611.03 -456.63 1267.1
623.71 -463.61 1286.5
647.31 -478.59 1328.1
653.08 -480.31 1332.8
660.13 -482.94 1340.1
664.67 -483.72 1342.3
654.38 -473.75 1314.6
652.49 -469.93 1304.0
661.67 -474.08 1315.5
667.03 -475.47 1319.4
663.34 -470.43 1305.4
655.70 -462.65 1283.8
657.10 -461.30 1280.1
666.77 -465.73 1292.4
672.99 -467.73 1297.9
675.26 -466.97 1295.8
682.83 -469.87 1303.8
693.09 -474.58 1316.9
699.39 -476.54 1322.4
688.71 -466.98 1295.8
677.03 -456.83 1267.7
687.76 -461.83 1281.5
701.27 -468.63 1300.4
697.59 -463.94 1287.4
689.75 -456.55 1266.9
696.00 -458.51 1272.3
702.74 -460.76 1278.6
704.43 -459.70 1275.6
712.12 -462.55 1283.5
716.13 -462.98 1284.7
720.60 -463.72 1286.8
737.71 -472.54 1311.3
747.40 -476.55 1322.4
736.88 -467.70 1297.8
754.62 -476.78 1323.0
803.78 -505.55 1402.9
826.12 -517.25 1435.3
831.38 -518.21 1438.0
843.36 -523.34 1452.2
864.06 -533.80 1481.2
306.59 -596.15 1642.5
305.12 -585.15 1612.2
296.74 -561.40 1546.7
288.22 -538.00 1482.3
293.39 -540.46 1489.0
297.49 -540.89 1490.2
296.92 -532.94 1468.3
299.08 -530.02 1460.3
303.69 -531.45 1464.2
307.73 -531.88 1465.4
309.23 -527.95 1454.6
308.69 -520.68 1434.5
309.25 -515.42 1420.0
312.58 -514.83 1418.4
313.44 -510.24 1405.8
316.92 -509.99 1405.1
320.83 -510.41 1406.2
319.22 -502.15 1383.5
328.86 -511.56 1409.4
344.03 -529.28 1458.2
350.48 -533.34 1469.4
351.01 -528.40 1455.8
347.45 -517.48 1425.7
348.70 -513.88 1415.8
354.01 -516.26 1422.3
360.95 -520.96 1435.3
367.26 -524.66 1445.5
365.64 -517.07 1424.6
367.24 -514.13 1416.5
380.02 -526.76 1451.3
385.25 -528.78 1456.8
377.36 -512.92 1413.2
373.19 -502.37 1384.1
377.30 -503.07 1386.0
383.93 -507.07 1397.0
386.06 -505.12 1391.7
387.65 -502.51 1384.5
390.75 -501.88 1382.7
385.29 -490.37 1351.0
385.16 -485.79 1338.4
388.92 -486.14 1339.4
392.14 -485.84 1338.5
401.26 -492.77 1357.6
406.14 -494.43 1362.2
401.52 -484.60 1335.1
402.26 -481.33 1326.1
408.20 -484.30 1334.3
401.64 -472.52 1301.8
399.70 -466.31 1284.7
408.14 -472.23 1301.0
410.38 -470.93 1297.5
417.78 -475.52 1310.1
430.15 -485.65 1338.0
433.03 -485.00 1336.2
431.80 -479.77 1321.8
436.40 -481.07 1325.4
446.09 -487.91 1344.2
445.36 -483.34 1331.6
445.78 -480.07 1322.6
457.71 -489.16 1347.7
463.64 -491.74 1354.8
458.49 -482.62 1329.7
462.23 -482.92 1330.5
477.22 -494.89 1363.5
479.46 -493.56 1359.8
470.92 -481.23 1325.8
472.09 -478.93 1319.5
488.64 -492.15 1355.9
492.43 -492.43 1356.7
479.01 -475.61 1310.4
482.70 -475.90 1311.1
496.59 -486.17 1339.4
503.99 -489.99 1350.0
512.43 -494.76 1363.1
518.92 -497.59 1370.9
525.78 -500.74 1379.6
533.02 -504.21 1389.1
530.74 -498.68 1373.9
531.82 -496.37 1367.5
541.16 -501.74 1382.3
541.19 -498.46 1373.3
536.28 -490.72 1352.0
543.22 -493.84 1360.6
553.02 -499.50 1376.2
557.92 -500.70 1379.5
552.46 -492.64 1357.3
536.12 -475.05 1308.8
529.68 -466.39 1284.9
528.58 -462.51 1274.3
538.75 -468.48 1290.7
558.54 -482.69 1329.8
567.05 -487.04 1341.8
566.34 -483.46 1332.0
568.20 -482.11 1328.3
583.16 -491.82 1355.0
594.84 -498.67 1373.9
585.39 -487.83 1344.0
579.23 -479.84 1322.0
583.69 -480.69 1324.3
584.69 -478.70 1318.9
587.99 -478.60 1318.6
591.28 -478.49 1318.3
600.82 -483.42 1331.9
611.98 -489.58 1348.8
603.50 -480.06 1322.6
598.87 -473.68 1305.0
611.27 -480.77 1324.6
619.35 -484.41 1334.6
619.44 -481.79 1327.4
613.04 -474.18 1306.4
606.14 -466.26 1284.6
614.22 -469.89 1294.6
630.52 -479.74 1321.7
631.31 -477.75 1316.2
622.17 -468.30 1290.2
617.06 -461.97 1272.8
622.29 -463.41 1276.7
635.06 -470.42 1296.0
649.59 -478.65 1318.7
654.09 -479.44 1320.9
643.77 -469.41 1293.3
645.66 -468.36 1290.4
659.08 -475.63 1310.4
662.29 -475.49 1310.0
656.00 -468.57 1291.0
653.10 -464.13 1278.7
659.26 -466.15 1284.3
674.18 -474.30 1306.7
685.24 -479.67 1321.5
677.45 -471.85 1300.0
675.30 -468.03 1289.5
678.88 -468.19 1289.9
678.00 -465.29 1281.9
688.70 -470.33 1295.8
698.12 -474.45 1307.2
695.87 -470.64 1296.6
695.38 -468.04 1289.5
714.83 -478.83 1319.2
730.30 -486.86 1341.4
713.38 -473.33 1304.1
696.77 -460.13 1267.7
701.21 -460.89 1269.8
712.12 -465.87 1283.5
717.98 -467.52 1288.1
724.79 -469.77 1294.3
745.65 -481.06 1325.4
758.18 -486.90 1341.5
761.36 -486.71 1340.9
796.66 -506.97 1396.7
839.30 -531.69 1464.8
851.76 -537.15 1479.9
849.47 -533.30 1469.3
853.37 -533.35 1469.4
313.42 -613.79 1679.1
311.00 -600.69 1643.2
304.84 -580.84 1588.9
298.05 -560.32 1532.8
303.16 -562.45 1538.6
307.20 -562.54 1538.9
302.84 -547.45 1497.6
301.49 -538.10 1472.0
297.90 -525.05 1436.3
294.90 -513.35 1404.3
302.52 -520.18 1423.0
307.65 -522.63 1429.7
305.20 -512.29 1401.4
305.64 -507.00 1386.9
314.00 -514.82 1408.3
324.34 -525.65 1438.0
329.79 -528.41 1445.5
330.19 -523.12 1431.0
332.66 -521.17 1425.7
340.51 -527.61 1443.3
344.73 -528.34 1445.3
342.12 -518.69 1418.9
343.83 -515.74 1410.8
350.68 -520.48 1423.8
353.50 -519.20 1420.3
356.99 -518.92 1419.5
365.35 -525.65 1437.9
366.06 -521.35 1426.2
367.18 -517.73 1416.3
379.24 -529.44 1448.3
382.06 -528.14 1444.8
371.23 -508.19 1390.2
370.44 -502.24 1373.9
378.00 -507.60 1388.6
388.37 -516.61 1413.2
393.82 -518.96 1419.7
390.15 -509.36 1393.4
386.85 -500.42 1368.9
389.39 -499.12 1365.4
396.60 -503.79 1378.2
394.14 -496.19 1357.4
391.31 -488.27 1335.7
393.46 -486.64 1331.2
391.00 -479.39 1311.4
396.59 -482.06 1318.7
408.52 -492.32 1346.8
414.79 -495.63 1355.8
409.40 -485.09 1327.0
398.27 -467.97 1280.2
397.08 -462.72 1265.8
409.50 -473.27 1294.7
428.36 -491.05 1343.3
432.13 -491.37 1344.2
427.75 -482.50 1319.9
426.77 -477.58 1306.4
431.64 -479.22 1310.9
440.69 -485.45 1328.0
440.23 -481.18 1316.3
434.88 -471.68 1290.3
441.87 -475.60 1301.0
456.25 -487.36 1333.2
458.76 -486.36 1330.5
455.37 -479.15 1310.8
463.43 -484.03 1324.1
472.18 -489.54 1339.2
470.25 -483.98 1323.9
469.19 -479.39 1311.4
482.82 -489.77 1339.8
490.45 -493.96 1351.2
482.22 -482.22 1319.1
487.24 -483.81 1323.5
502.80 -495.76 1356.2
507.25 -496.68 1358.7
513.71 -499.54 1366.5
511.17 -493.66 1350.4
507.87 -487.14 1332.6
521.78 -497.10 1359.8
526.60 -498.32 1363.2
528.34 -496.64 1358.6
538.35 -502.70 1375.2
541.83 -502.62 1375.0
540.78 -498.36 1363.3
543.17 -497.32 1360.5
546.62 -497.24 1360.2
550.76 -497.81 1361.8
544.92 -489.39 1338.7
536.45 -478.73 1309.6
538.32 -477.38 1305.9
537.27 -473.47 1295.2
546.75 -478.83 1309.9
560.33 -487.70 1334.1
561.85 -486.02 1329.5
570.76 -490.71 1342.4
582.33 -497.63 1361.3
587.24 -498.80 1364.5
589.14 -497.42 1360.7
581.19 -487.78 1334.4
576.92 -481.33 1316.7
589.78 -489.17 1338.1
598.88 -493.82 1350.9
603.80 -494.97 1354.0
608.72 -496.13 1357.2
602.34 -488.11 1335.2
597.83 -481.68 1317.7
596.38 -477.78 1307.0
599.24 -477.36 1305.8
614.42 -486.70 1331.4
625.31 -492.56 1347.4
620.62 -486.15 1329.9
608.99 -474.40 1297.8
610.18 -472.72 1293.2
626.82 -482.96 1321.2
636.62 -487.84 1334.5
630.87 -480.83 1315.3
627.52 -475.70 1301.3
628.24 -473.70 1295.8
624.36 -468.27 1281.0
627.52 -468.15 1280.6
632.77 -469.58 1284.6
627.92 -463.54 1268.1
629.35 -462.18 1264.3
641.82 -468.89 1282.7
653.08 -474.66 1298.5
654.54 -473.29 1294.7
655.56 -471.60 1290.1
660.44 -472.70 1293.1
676.62 -481.84 1318.1
701.19 -496.83 1359.1
700.54 -493.88 1351.0
681.39 -477.99 1307.6
679.26 -474.14 1297.0
682.41 -473.99 1296.6
689.56 -476.61 1303.8
707.90 -486.89 1331.9
702.14 -480.59 1314.7
683.25 -465.40 1273.1
679.10 -460.35 1259.3
695.76 -469.39 1284.0
705.23 -473.51 1295.3
680.01 -454.41 1243.1
672.92 -447.56 1224.3
690.16 -456.87 1249.8
715.81 -471.63 1290.2
737.46 -483.63 1323.0
741.08 -483.76 1323.3
760.58 -494.20 1351.9
786.76 -508.87 1392.0
805.10 -518.35 1418.0
818.81 -524.79 1435.6
834.50 -532.42 1456.5
857.87 -544.86 1490.5
314.69 -603.86 1640.3
303.73 -575.06 1562.0
306.73 -573.11 1556.7
312.84 -576.93 1567.1
309.50 -563.44 1530.5
302.19 -543.17 1475.4
293.45 -520.88 1414.9
291.96 -511.83 1390.3
301.49 -522.10 1418.2
307.60 -526.25 1429.5
305.95 -517.20 1404.9
306.41 -511.88 1390.4
314.98 -520.09 1412.7
323.04 -527.27 1432.2
325.97 -525.99 1428.8
327.39 -522.35 1418.9
330.90 -522.09 1418.1
332.89 -519.46 1411.0
330.26 -509.75 1384.6
332.80 -508.14 1380.3
339.76 -513.26 1394.2
348.15 -520.39 1413.5
352.54 -521.46 1416.4
350.50 -513.11 1393.8
352.53 -510.81 1387.5
359.68 -515.90 1401.3
368.31 -523.00 1420.6
373.46 -525.06 1426.2
368.03 -512.35 1391.7
360.24 -496.64 1349.0
363.28 -496.02 1347.3
375.48 -507.79 1379.3
389.57 -521.87 1417.6
395.03 -524.24 1424.0
391.36 -514.57 1397.7
389.62 -507.58 1378.7
392.96 -507.28 1377.9
402.29 -514.64 1397.9
402.77 -510.66 1387.1
390.74 -491.02 1333.8
384.33 -478.73 1300.4
388.27 -479.42 1302.3
400.90 -490.76 1333.0
411.76 -499.75 1357.5
417.78 -502.75 1365.6
416.04 -496.45 1348.5
408.89 -483.86 1314.3
401.30 -470.94 1279.2
405.77 -472.29 1282.9
422.87 -488.19 1326.1
425.73 -487.53 1324.3
427.71 -485.88 1319.8
432.60 -487.53 1324.3
441.05 -493.14 1339.5
453.73 -503.36 1367.3
457.56 -503.67 1368.1
456.86 -499.04 1355.5
451.25 -489.14 1328.7
454.07 -488.47 1326.8
456.87 -487.79 1325.0
454.09 -481.20 1307.1
460.90 -484.79 1316.8
469.00 -489.69 1330.1
478.11 -495.56 1346.1
488.57 -502.73 1365.6
486.30 -496.80 1349.5
477.83 -484.66 1316.5
477.64 -481.03 1306.6
491.12 -491.12 1334.0
509.98 -506.41 1375.6
518.78 -511.57 1389.6
512.00 -501.41 1362.0
495.05 -481.49 1307.9
488.63 -472.01 1282.1
498.01 -477.82 1297.9
509.51 -485.57 1319.0
518.70 -491.03 1333.8
530.02 -498.43 1353.9
535.19 -499.98 1358.1
540.38 -501.53 1362.3
548.74 -505.98 1374.4
553.27 -506.87 1376.8
557.81 -507.75 1379.2
558.08 -504.76 1371.1
555.80 -499.51 1356.8
561.02 -501.04 1361.0
563.00 -499.66 1357.2
555.84 -490.24 1331.6
551.86 -483.73 1314.0
560.34 -488.15 1325.9
576.27 -498.97 1355.3
579.30 -498.55 1354.2
575.58 -492.36 1337.4
581.57 -494.51 1343.2
578.50 -488.97 1328.2
576.88 -484.72 1316.6
592.03 -494.52 1343.3
596.54 -495.37 1345.6
596.42 -492.39 1337.5
600.53 -492.92 1338.9
592.95 -483.90 1314.4
597.01 -484.43 1315.9
604.22 -487.50 1324.2
607.91 -487.70 1324.7
624.32 -498.05 1352.9
635.25 -503.94 1368.9
630.21 -497.16 1350.4
613.80 -481.54 1308.0
608.54 -474.79 1289.7
620.28 -481.31 1307.4
625.55 -482.76 1311.3
625.51 -480.12 1304.1
628.32 -479.68 1303.0
626.15 -475.47 1291.5
619.35 -467.81 1270.7
617.06 -463.61 1259.3
616.81 -460.99 1252.2
621.59 -462.12 1255.3
631.46 -467.01 1268.6
647.75 -476.59 1294.5
662.45 -484.89 1317.1
661.38 -481.62 1308.2
660.27 -478.36 1299.4
668.63 -481.96 1309.1
687.88 -493.33 1340.0
710.31 -506.85 1376.8
707.51 -502.33 1364.5
691.47 -488.50 1326.9
692.92 -487.10 1323.1
694.35 -485.70 1319.3
698.87 -486.47 1321.4
709.65 -491.56 1335.2
694.50 -478.73 1300.4
688.64 -472.40 1283.2
699.87 -477.80 1297.8
702.09 -477.02 1295.7
694.29 -469.48 1275.2
671.79 -452.11 1228.1
666.98 -446.75 1213.5
686.48 -457.65 1243.1
713.96 -473.75 1286.8
760.61 -502.36 1364.5
791.76 -520.51 1413.9
793.69 -519.38 1410.8
802.17 -522.52 1419.3
825.26 -535.10 1453.5
842.82 -544.00 1477.7
850.06 -546.19 1483.6
863.49 -552.32 1500.3
879.37 -559.96 1521.0
324.35 -626.78 1690.6
318.19 -606.68 1636.4
304.67 -573.26 1546.2
298.24 -553.87 1494.0
303.66 -556.70 1501.6
303.64 -549.62 1482.5
304.86 -544.94 1469.9
312.39 -551.51 1487.6
310.44 -541.37 1460.2
306.16 -527.49 1422.8
307.10 -522.81 1410.2
310.00 -521.54 1406.7
316.98 -527.07 1421.7
323.61 -531.91 1434.7
324.45 -527.23 1422.1
324.17 -520.85 1404.9
325.08 -516.51 1393.2
324.20 -509.46 1374.2
326.72 -507.84 1369.8
334.29 -514.02 1386.5
339.71 -516.80 1394.0
346.97 -522.28 1408.8
352.48 -525.05 1416.2
351.60 -518.34 1398.1
354.80 -517.72 1396.4
363.37 -524.87 1415.7
362.35 -518.16 1397.6
357.18 -505.71 1364.1
361.72 -507.12 1367.8
365.54 -507.50 1368.9
372.31 -511.93 1380.8
387.79 -528.14 1424.5
390.01 -526.14 1419.2
383.13 -512.04 1381.1
386.99 -512.41 1382.1
392.90 -515.46 1390.4
392.14 -509.78 1375.0
396.50 -510.81 1377.8
399.30 -509.82 1375.1
390.96 -494.76 1334.5
383.76 -481.39 1298.4
386.62 -480.75 1296.7
400.86 -494.16 1332.9
413.91 -505.89 1364.5
423.52 -513.25 1384.4
426.00 -511.91 1380.8
412.77 -491.89 1326.8
398.73 -471.22 1271.0
403.46 -472.91 1275.6
419.68 -487.92 1316.1
431.47 -497.58 1342.1
441.34 -504.89 1361.8
443.98 -503.89 1359.1
450.45 -507.19 1368.1
460.22 -514.15 1386.8
461.70 -511.80 1380.5
466.76 -513.44 1384.9
466.99 -509.76 1375.0
458.30 -496.50 1339.2
450.37 -484.24 1306.1
446.00 -475.96 1283.8
451.50 -478.26 1290.0
462.68 -486.49 1312.2
474.59 -495.38 1336.2
485.34 -502.92 1356.5
483.69 -497.61 1342.2
484.56 -494.94 1335.0
493.49 -500.49 1350.0
501.19 -504.72 1361.4
513.86 -513.86 1386.0
519.38 -515.77 1391.2
509.62 -502.59 1355.6
498.36 -488.12 1316.6
497.35 -483.82 1305.0
499.33 -482.46 1301.4
503.00 -482.74 1302.1
514.54 -490.53 1323.1
528.25 -500.26 1349.4
534.80 -503.13 1357.1
540.33 -505.01 1362.2
547.28 -508.19 1370.7
549.34 -506.81 1367.0
557.40 -510.95 1378.2
560.17 -510.21 1376.2
550.73 -498.44 1344.5
547.63 -492.52 1328.5
567.30 -507.02 1367.6
576.94 -512.43 1382.2
573.81 -506.51 1366.2
583.14 -511.59 1379.9
586.96 -511.80 1380.5
578.14 -501.05 1351.5
568.05 -489.35 1319.9
567.61 -486.03 1311.0
570.14 -485.30 1309.0
574.19 -485.85 1310.5
592.37 -498.29 1344.0
599.95 -501.71 1353.3
589.82 -490.37 1322.7
583.43 -482.26 1300.8
582.01 -478.32 1290.2
591.89 -483.66 1304.6
596.71 -484.83 1307.7
598.78 -483.76 1304.9
613.95 -493.23 1330.4
623.63 -498.21 1343.8
625.75 -497.13 1340.9
616.18 -486.82 1313.1
617.82 -485.43 1309.3
636.10 -497.06 1340.7
646.35 -502.32 1354.9
651.73 -503.77 1358.8
648.06 -498.24 1343.9
640.61 -489.88 1321.3
638.45 -485.63 1309.9
640.42 -484.55 1307.0
628.54 -473.06 1276.0
620.32 -464.43 1252.7
642.02 -478.17 1289.8
671.09 -497.23 1341.2
666.26 -491.11 1324.7
644.22 -472.43 1274.3
647.35 -472.30 1273.9
659.54 -478.75 1291.3
673.10 -486.13 1311.2
690.66 -496.30 1338.7
689.97 -493.33 1330.7
676.51 -481.30 1298.2
679.67 -481.15 1297.8
683.26 -481.31 1298.2
691.74 -484.89 1307.9
705.61 -492.20 1327.6
702.54 -487.68 1315.4
710.21 -490.63 1323.4
729.18 -501.31 1352.2
738.31 -505.16 1362.6
731.11 -497.85 1342.9
706.94 -479.11 1292.3
709.14 -478.33 1290.2
737.06 -494.84 1334.7
749.94 -501.13 1351.7
783.73 -521.27 1406.0
818.67 -541.99 1461.9
821.17 -541.14 1459.6
825.99 -541.82 1461.5
846.81 -552.94 1491.4
323.73 -629.96 1687.4
316.67 -608.01 1628.6
302.06 -572.32 1533.0
296.16 -553.85 1483.5
303.03 -559.45 1498.5
307.16 -559.89 1499.7
312.24 -562.04 1505.5
313.88 -558.00 1494.7
305.89 -537.16 1438.8
302.55 -524.91 1406.0
304.06 -521.24 1396.2
309.75 -524.76 1405.6
319.79 -535.46 1434.3
322.11 -533.14 1428.1
318.96 -521.94 1398.0
323.48 -523.38 1401.9
329.30 -526.88 1411.3
328.69 -520.12 1393.2
331.91 -519.51 1391.6
340.41 -527.09 1411.8
347.01 -531.59 1423.9
351.41 -532.67 1426.8
354.01 -531.02 1422.4
347.42 -515.76 1381.5
343.86 -505.27 1353.4
359.34 -522.67 1400.0
366.07 -527.14 1412.0
356.90 -508.84 1363.0
357.58 -504.82 1352.2
362.10 -506.23 1356.0
369.81 -512.05 1371.6
379.82 -520.90 1395.3
377.23 -512.47 1372.7
376.04 -506.07 1355.5
384.91 -513.21 1374.7
396.18 -523.39 1401.9
400.34 -524.09 1403.8
397.23 -515.33 1380.3
392.43 -504.55 1351.5
391.71 -499.18 1337.1
391.47 -494.48 1324.5
387.12 -484.74 1298.4
392.95 -487.80 1306.6
405.11 -498.59 1335.5
413.82 -505.00 1352.7
425.94 -515.43 1380.6
423.65 -508.37 1361.7
409.41 -487.24 1305.1
413.66 -488.26 1307.8
428.23 -501.34 1342.9
438.05 -508.71 1362.6
447.10 -515.06 1379.6
449.78 -514.04 1376.9
440.66 -499.65 1338.4
437.30 -491.96 1317.8
446.39 -498.30 1334.7
457.97 -507.29 1358.8
459.65 -505.27 1353.4
452.46 -493.59 1322.1
456.79 -494.57 1324.7
463.92 -498.54 1335.4
461.75 -492.53 1319.3
465.46 -492.84 1320.1
471.39 -495.47 1327.2
476.07 -496.77 1330.6
481.09 -498.39 1335.0
489.02 -502.99 1347.3
494.42 -504.94 1352.5
498.85 -505.88 1355.0
507.24 -510.79 1368.2
508.09 -508.09 1361.0
510.57 -507.05 1358.2
513.03 -506.00 1355.4
517.49 -506.93 1357.8
525.01 -510.82 1368.3
517.94 -500.56 1340.8
517.58 -496.88 1330.9
526.13 -501.74 1344.0
527.12 -499.38 1337.6
527.73 -496.69 1330.4
528.66 -494.33 1324.1
534.13 -496.23 1329.2
545.65 -503.68 1349.1
553.34 -507.52 1359.4
548.53 -499.93 1339.1
541.46 -490.38 1313.5
556.74 -501.07 1342.1
572.87 -512.38 1372.4
575.95 -511.96 1371.3
583.81 -515.76 1381.5
586.17 -514.68 1378.6
578.83 -505.16 1353.1
570.26 -494.68 1325.0
566.44 -488.43 1308.3
565.20 -484.45 1297.6
569.59 -485.34 1300.0
587.74 -497.85 1333.5
600.28 -505.50 1354.0
595.18 -498.29 1334.7
590.37 -491.41 1316.3
590.93 -489.05 1309.9
599.68 -493.45 1321.7
602.97 -493.34 1321.4
599.54 -487.76 1306.5
608.75 -492.47 1319.1
613.62 -493.64 1322.2
611.29 -489.03 1309.9
616.95 -490.84 1314.7
633.15 -500.95 1341.8
638.09 -502.10 1344.9
634.87 -496.86 1330.9
650.04 -505.98 1355.3
656.67 -508.39 1361.7
650.08 -500.60 1340.9
647.98 -496.32 1329.4
652.91 -497.45 1332.5
644.03 -488.10 1307.4
625.78 -471.79 1263.7
636.50 -477.37 1278.7
676.99 -505.11 1353.0
684.55 -508.12 1361.0
660.04 -487.42 1305.6
658.93 -484.12 1296.7
669.44 -489.34 1310.7
681.30 -495.49 1327.2
683.66 -494.71 1325.1
668.09 -481.02 1288.5
679.12 -486.54 1303.2
706.51 -503.65 1349.1
694.29 -492.50 1319.2
685.94 -484.19 1296.9
723.40 -508.15 1361.1
744.57 -520.48 1394.1
733.53 -510.28 1366.8
734.10 -508.23 1361.3
732.38 -504.61 1351.6
712.90 -488.85 1309.4
718.33 -490.23 1313.1
756.27 -513.69 1376.0
779.30 -526.85 1411.2
784.95 -528.19 1414.8
804.96 -539.14 1444.1
825.55 -550.37 1474.2
848.60 -563.12 1508.4
309.25 -590.01 1569.5
310.24 -584.22 1554.1
311.71 -579.47 1541.4
311.24 -571.26 1519.6
308.17 -558.57 1485.8
302.63 -541.74 1441.1
303.88 -537.35 1429.4
308.43 -538.82 1433.3
305.80 -527.88 1404.2
307.88 -525.21 1397.1
314.01 -529.44 1408.4
312.34 -520.57 1384.8
313.27 -516.19 1373.1
322.16 -524.87 1396.2
328.18 -528.73 1406.5
327.77 -522.28 1389.3
328.16 -517.20 1375.8
333.75 -520.37 1384.2
341.84 -527.30 1402.7
347.76 -530.79 1412.0
351.46 -530.85 1412.1
345.99 -517.21 1375.8
338.26 -500.49 1331.4
349.00 -511.17 1359.8
363.42 -526.96 1401.8
363.04 -521.19 1386.4
355.37 -505.19 1343.9
351.62 -495.00 1316.8
353.36 -492.67 1310.6
357.54 -493.75 1313.4
362.23 -495.51 1318.1
368.45 -499.30 1328.2
376.49 -505.47 1344.6
386.65 -514.36 1368.2
393.06 -518.13 1378.3
393.01 -513.40 1365.7
389.49 -504.25 1341.4
390.08 -500.55 1331.5
390.89 -497.18 1322.6
387.89 -489.08 1301.0
388.58 -485.72 1292.1
395.50 -490.15 1303.9
404.13 -496.60 1321.0
416.17 -507.10 1348.9
416.60 -503.39 1339.1
405.43 -485.85 1292.4
415.33 -493.62 1313.1
435.33 -513.19 1365.1
435.40 -509.14 1354.4
435.72 -505.43 1344.5
439.78 -506.10 1346.3
432.96 -494.32 1314.9
430.43 -487.60 1297.1
439.77 -494.32 1314.9
448.59 -500.35 1331.0
447.48 -495.30 1317.6
450.58 -494.96 1316.6
463.81 -505.66 1345.1
471.60 -510.32 1357.5
470.11 -504.94 1343.2
470.75 -501.90 1335.1
473.55 -501.20 1333.2
483.96 -508.51 1352.7
494.78 -516.14 1373.0
486.07 -503.43 1339.2
475.26 -488.74 1300.1
479.25 -489.38 1301.8
485.54 -492.34 1309.7
493.85 -497.28 1322.8
504.21 -504.21 1341.2
508.63 -505.15 1343.7
514.75 -507.74 1350.6
527.99 -517.29 1376.0
526.73 -512.59 1363.5
521.30 -503.92 1340.5
524.36 -503.53 1339.4
519.81 -495.87 1319.1
514.81 -487.89 1297.8
519.16 -488.82 1300.3
529.86 -495.68 1318.6
545.60 -507.13 1349.0
557.20 -514.61 1368.9
550.99 -505.65 1345.1
542.50 -494.74 1316.0
550.17 -498.60 1326.3
557.89 -502.45 1336.6
565.28 -505.96 1345.9
577.50 -513.72 1366.6
595.35 -526.38 1400.2
602.57 -529.53 1408.6
588.90 -514.40 1368.3
579.55 -503.20 1338.6
580.64 -501.15 1333.1
587.01 -503.65 1339.8
588.84 -502.25 1336.0
584.13 -495.31 1317.6
590.89 -498.14 1325.1
598.07 -501.27 1333.4
601.01 -500.84 1332.3
613.32 -508.18 1351.8
610.00 -502.55 1336.8
599.11 -490.80 1305.6
609.50 -496.50 1320.7
615.17 -498.32 1325.6
604.85 -487.24 1296.1
602.84 -482.94 1284.7
619.77 -493.77 1313.5
624.24 -494.61 1315.7
609.14 -480.03 1276.9
613.13 -480.56 1278.3
633.16 -493.59 1313.0
639.29 -495.71 1318.6
628.01 -484.37 1288.5
622.85 -477.85 1271.1
637.71 -486.68 1294.6
643.42 -488.46 1299.4
630.14 -475.89 1265.9
645.98 -485.32 1291.0
676.41 -505.56 1344.8
676.69 -503.18 1338.5
676.95 -500.80 1332.2
689.25 -507.32 1349.5
691.66 -506.52 1347.4
683.62 -498.12 1325.0
686.84 -497.96 1324.6
717.67 -517.72 1377.2
732.88 -526.08 1399.4
705.75 -504.11 1341.0
699.67 -497.31 1322.9
742.51 -525.19 1397.1
749.88 -527.83 1404.1
722.26 -505.93 1345.8
734.96 -512.35 1362.9
745.91 -517.50 1376.6
720.14 -497.24 1322.7
721.95 -496.12 1319.7
746.15 -510.34 1357.6
753.53 -512.96 1364.5
762.30 -516.51 1374.0
785.92 -530.04 1410.0
824.08 -553.20 1471.6
321.50 -617.61 1631.6
318.61 -604.12 1596.0
316.84 -593.07 1566.8
313.24 -578.90 1529.4
306.78 -559.87 1479.1
307.97 -555.10 1466.5
314.94 -560.74 1481.4
315.67 -555.28 1467.0
309.35 -537.67 1420.5
308.03 -529.09 1397.8
311.30 -528.49 1396.2
311.05 -522.00 1379.1
312.81 -518.97 1371.1
319.79 -524.60 1385.9
324.29 -526.06 1389.8
324.92 -521.30 1377.2
326.36 -517.93 1368.3
332.38 -521.80 1378.5
340.89 -529.47 1398.8
342.54 -526.43 1390.8
341.65 -519.60 1372.7
350.52 -527.59 1393.8
358.80 -534.53 1412.2
352.92 -520.47 1375.0
349.22 -509.86 1347.0
355.37 -513.71 1357.1
355.09 -508.26 1342.8
356.18 -504.88 1333.8
363.35 -510.09 1347.6
366.38 -509.45 1345.9
370.16 -509.84 1346.9
369.66 -504.40 1332.6
371.12 -501.70 1325.4
380.47 -509.62 1346.3
387.08 -513.76 1357.3
383.08 -503.88 1331.2
375.29 -489.22 1292.5
374.97 -484.48 1279.9
375.93 -481.45 1271.9
385.70 -489.67 1293.7
399.91 -503.34 1329.8
397.92 -496.55 1311.8
396.66 -490.78 1296.6
410.30 -503.39 1329.9
411.80 -501.03 1323.7
402.30 -485.42 1282.4
414.15 -495.62 1309.4
421.55 -500.38 1321.9
411.16 -484.11 1279.0
416.52 -486.50 1285.3
424.83 -492.26 1300.5
426.73 -490.58 1296.0
431.58 -492.27 1300.5
438.23 -495.99 1310.3
444.93 -499.69 1320.1
449.56 -501.03 1323.7
457.85 -506.41 1337.9
462.22 -507.40 1340.5
461.66 -503.00 1328.9
459.17 -496.59 1311.9
459.11 -492.87 1302.1
463.41 -493.86 1304.7
474.71 -502.22 1326.8
488.65 -513.26 1356.0
482.81 -503.50 1330.2
470.37 -487.05 1286.7
471.72 -485.01 1281.3
487.47 -497.69 1314.8
504.68 -511.69 1351.8
505.81 -509.30 1345.5
499.57 -499.57 1319.8
505.96 -502.52 1327.6
518.81 -511.80 1352.1
525.31 -514.73 1359.9
529.45 -515.33 1361.4
529.47 -511.94 1352.5
522.87 -502.23 1326.8
521.38 -497.52 1314.4
530.32 -502.77 1328.2
535.45 -504.35 1332.4
545.54 -510.57 1348.9
556.07 -517.11 1366.1
549.14 -507.44 1340.6
545.70 -501.08 1323.8
558.81 -509.91 1347.1
563.29 -510.81 1349.5
566.33 -510.39 1348.4
577.44 -517.21 1366.4
595.28 -529.94 1400.0
603.24 -533.77 1410.2
589.21 -518.22 1369.1
585.13 -511.55 1351.5
592.28 -514.72 1359.8
583.55 -504.13 1331.9
571.26 -490.61 1296.1
582.17 -497.06 1313.2
604.70 -513.29 1356.1
605.37 -510.89 1349.7
602.90 -505.88 1336.5
598.81 -499.58 1319.8
580.12 -481.23 1271.4
584.48 -482.11 1273.7
610.64 -500.87 1323.2
611.94 -499.12 1318.6
597.61 -484.73 1280.6
592.36 -477.82 1262.3
606.00 -486.13 1284.3
626.22 -499.61 1319.9
626.23 -496.90 1312.7
614.33 -484.82 1280.8
619.56 -486.32 1284.8
631.41 -492.97 1302.4
625.91 -486.08 1284.2
618.66 -477.91 1262.6
631.82 -485.51 1282.6
646.75 -494.37 1306.1
642.78 -488.78 1291.3
657.82 -497.63 1314.7
689.56 -518.94 1371.0
681.35 -510.14 1347.7
673.04 -501.35 1324.5
691.79 -512.69 1354.5
702.86 -518.27 1369.2
694.01 -509.17 1345.2
696.40 -508.37 1343.1
710.17 -515.84 1362.8
706.42 -510.58 1348.9
695.11 -499.93 1320.7
709.39 -507.70 1341.3
753.12 -536.37 1417.0
757.85 -537.12 1419.0
723.11 -510.02 1347.4
731.30 -513.32 1356.1
770.72 -538.40 1422.4
770.47 -535.66 1415.1
768.37 -531.67 1404.6
792.28 -545.63 1441.5
821.20 -560.26 1480.1
823.30 -559.08 1477.0
838.83 -566.99 1497.9
317.24 -605.65 1589.2
314.17 -592.09 1553.6
309.03 -575.03 1508.8
302.34 -555.54 1457.7
303.47 -550.75 1445.1
313.12 -561.32 1472.9
316.00 -559.67 1468.5
314.47 -550.33 1444.0
317.46 -549.02 1440.6
317.57 -542.83 1424.3
314.92 -532.11 1396.2
315.88 -527.67 1384.6
321.84 -531.59 1394.8
329.13 -537.58 1410.6
332.62 -537.31 1409.9
331.32 -529.39 1389.1
334.31 -528.42 1386.5
339.50 -530.92 1393.1
337.77 -522.66 1371.4
339.56 -519.95 1364.3
351.61 -532.85 1398.1
359.20 -538.80 1413.8
352.64 -523.61 1373.9
348.00 -511.55 1342.3
352.23 -512.65 1345.2
356.24 -513.40 1347.1
361.71 -516.22 1354.5
368.43 -520.76 1366.4
371.27 -519.77 1363.8
374.58 -519.47 1363.0
373.88 -513.65 1347.8
373.61 -508.52 1334.3
381.18 -514.07 1348.9
381.36 -509.64 1337.2
370.57 -490.76 1287.7
371.32 -487.36 1278.8
380.22 -494.62 1297.8
384.68 -496.03 1301.5
397.47 -508.07 1333.1
404.46 -512.55 1344.9
393.51 -494.41 1297.3
391.67 -487.93 1280.3
405.54 -500.96 1314.5
416.78 -510.56 1339.7
416.61 -506.12 1328.0
416.09 -501.35 1315.5
412.08 -492.49 1292.2
407.96 -483.63 1269.0
418.80 -492.51 1292.3
430.34 -502.06 1317.4
435.52 -504.10 1322.7
442.20 -507.84 1332.5
451.02 -513.95 1348.6
455.10 -514.61 1350.3
458.28 -514.25 1349.4
456.58 -508.47 1334.2
451.74 -499.29 1310.1
457.90 -502.33 1318.1
462.24 -503.32 1320.7
458.44 -495.52 1300.2
459.27 -492.80 1293.1
459.44 -489.40 1284.1
461.79 -488.37 1281.4
470.87 -494.42 1297.3
472.92 -493.04 1293.7
472.01 -488.63 1282.1
484.47 -498.03 1306.8
499.35 -509.76 1337.6
497.47 -504.33 1323.3
498.85 -502.27 1317.9
512.62 -512.62 1345.1
521.79 -518.26 1359.9
524.91 -517.86 1358.8
528.02 -517.46 1357.8
527.35 -513.38 1347.1
528.70 -511.31 1341.6
535.93 -514.91 1351.1
540.40 -515.84 1353.5
540.67 -512.76 1345.4
543.37 -512.02 1343.5
547.12 -512.27 1344.2
554.09 -515.52 1352.7
566.14 -523.41 1373.4
571.04 -524.64 1376.6
567.23 -517.91 1358.9
563.35 -511.19 1341.3
568.19 -512.42 1344.5
578.22 -518.28 1359.9
578.29 -515.21 1351.9
573.85 -508.17 1333.4
579.82 -510.38 1339.2
592.22 -518.20 1359.7
588.42 -511.83 1343.0
583.41 -504.47 1323.7
603.18 -518.52 1360.5
611.95 -523.01 1372.3
598.36 -508.43 1334.1
592.36 -500.44 1313.1
585.88 -492.14 1291.3
581.26 -485.49 1273.9
600.61 -498.81 1308.8
623.66 -515.05 1351.4
621.05 -510.02 1338.2
601.98 -491.61 1290.0
592.33 -481.07 1262.3
609.20 -492.04 1291.1
631.85 -507.55 1331.8
626.19 -500.27 1312.7
608.98 -483.89 1269.7
610.90 -482.81 1266.8
618.99 -486.58 1276.8
633.34 -495.21 1299.4
646.53 -502.86 1319.4
644.34 -498.51 1308.1
644.19 -495.79 1300.9
656.24 -502.44 1318.3
688.70 -524.55 1376.4
709.49 -537.60 1410.6
688.99 -519.39 1362.8
677.72 -508.29 1333.7
694.75 -518.42 1360.3
709.29 -526.60 1381.7
703.95 -520.00 1364.4
699.40 -514.06 1348.8
706.17 -516.45 1355.1
712.52 -518.52 1360.5
711.39 -515.15 1351.7
691.62 -498.37 1307.7
701.45 -502.99 1319.8
746.17 -532.46 1397.1
748.62 -531.63 1394.9
742.05 -524.43 1376.1
767.48 -539.81 1416.4
788.53 -551.97 1448.3
809.72 -564.12 1480.2
320.28 -615.60 1604.4
312.05 -592.09 1543.1
303.70 -568.96 1482.8
294.48 -544.79 1419.8
296.29 -541.38 1410.9
307.21 -554.48 1445.1
316.92 -565.11 1472.8
320.79 -565.20 1473.0
321.63 -560.02 1459.5
319.96 -550.63 1435.0
319.61 -543.70 1417.0
322.50 -542.38 1413.5
321.37 -534.41 1392.8
322.48 -530.29 1382.0
331.27 -538.77 1404.1
334.74 -538.50 1403.4
333.15 -530.18 1381.7
333.45 -525.01 1368.3
336.60 -524.39 1366.6
344.04 -530.39 1382.3
350.86 -535.34 1395.2
352.90 -532.96 1389.0
355.84 -531.97 1386.4
361.36 -534.81 1393.8
364.06 -533.47 1390.3
366.73 -532.13 1386.8
358.03 -514.44 1340.7
350.07 -498.17 1298.3
357.66 -504.13 1313.9
365.08 -509.74 1328.5
373.33 -516.38 1345.8
382.16 -523.70 1364.9
386.49 -524.77 1367.7
383.37 -515.80 1344.3
376.50 -502.00 1308.3
382.01 -504.81 1315.6
395.21 -517.63 1349.0
403.25 -523.52 1364.4
396.35 -510.08 1329.4
381.70 -487.00 1269.2
382.02 -483.24 1259.4
392.18 -491.89 1282.0
398.02 -495.02 1290.1
400.55 -494.01 1287.5
412.90 -505.04 1316.2
424.82 -515.36 1343.1
424.02 -510.21 1329.7
423.16 -505.07 1316.3
424.55 -502.67 1310.1
428.25 -503.02 1311.0
440.46 -513.29 1337.7
453.69 -524.58 1367.1
455.13 -522.17 1360.9
453.24 -516.00 1344.8
453.08 -511.88 1334.1
448.01 -502.31 1309.1
443.42 -493.43 1286.0
449.52 -496.49 1293.9
464.98 -509.76 1328.5
472.47 -514.15 1340.0
468.36 -505.96 1318.6
464.46 -498.12 1298.2
466.85 -497.08 1295.5
476.28 -503.50 1312.2
487.73 -511.94 1334.2
496.03 -516.98 1347.4
490.64 -507.80 1323.4
486.79 -500.31 1303.9
487.15 -497.23 1295.9
490.81 -497.53 1296.7
505.86 -509.30 1327.3
517.00 -517.00 1347.4
516.03 -512.56 1335.8
514.99 -508.12 1324.3
522.48 -512.10 1334.6
531.75 -517.75 1349.4
529.96 -512.64 1336.0
523.58 -503.18 1311.4
523.40 -499.76 1302.5
526.71 -499.69 1302.3
547.06 -515.70 1344.0
572.61 -536.37 1397.9
575.77 -535.93 1396.7
570.97 -528.15 1376.4
568.26 -522.38 1361.4
567.31 -518.28 1350.7
569.97 -517.52 1348.7
577.42 -521.09 1358.0
588.25 -527.64 1375.1
593.93 -529.53 1380.0
582.01 -515.80 1344.3
575.96 -507.40 1322.4
584.58 -511.94 1334.2
591.73 -515.15 1342.6
614.20 -531.59 1385.4
625.34 -538.08 1402.3
611.82 -523.41 1364.1
607.07 -516.36 1345.7
610.03 -515.91 1344.5
614.54 -516.78 1346.8
614.35 -513.69 1338.8
618.86 -514.56 1341.0
615.03 -508.51 1325.3
594.75 -489.02 1274.5
595.52 -486.94 1269.1
624.88 -508.14 1324.3
650.84 -526.36 1371.8
646.89 -520.32 1356.1
620.39 -496.32 1293.5
614.15 -488.68 1273.6
628.03 -497.05 1295.4
646.55 -508.99 1326.5
655.64 -513.41 1338.0
648.89 -505.45 1317.3
648.35 -502.39 1309.3
659.99 -508.74 1325.9
674.67 -517.36 1348.3
676.26 -515.91 1344.5
671.85 -509.92 1328.9
678.52 -512.35 1335.3
684.36 -514.14 1339.9
685.46 -512.36 1335.3
702.15 -522.20 1361.0
722.01 -534.29 1392.4
720.55 -530.56 1382.7
717.74 -525.87 1370.5
740.89 -540.15 1407.7
745.15 -540.60 1408.9
719.19 -519.22 1353.2
726.91 -522.25 1361.1
765.12 -547.04 1425.7
324.21 -619.32 1603.2
316.96 -597.81 1547.5
305.63 -569.24 1473.6
306.62 -564.03 1460.1
313.18 -569.07 1473.2
318.62 -571.99 1480.7
325.50 -577.37 1494.6
328.61 -576.04 1491.2
324.38 -562.00 1454.8
321.61 -550.80 1425.8
320.98 -543.48 1406.9
316.47 -529.82 1371.5
317.95 -526.39 1362.7
327.34 -535.98 1387.5
331.42 -536.76 1389.5
330.46 -529.45 1370.6
331.85 -526.02 1361.7
336.32 -527.49 1365.5
340.81 -528.97 1369.3
344.18 -528.69 1368.6
349.15 -530.86 1374.2
355.55 -535.12 1385.3
361.77 -539.03 1395.4
365.18 -538.73 1394.6
369.07 -539.13 1395.6
362.57 -524.49 1357.7
346.36 -496.23 1284.6
345.06 -489.66 1267.6
359.07 -504.74 1306.6
374.03 -520.84 1348.3
378.56 -522.28 1352.0
378.27 -517.09 1338.6
379.97 -514.69 1332.4
378.53 -508.11 1315.3
384.06 -510.94 1322.7
397.53 -524.18 1356.9
404.26 -528.37 1367.8
394.96 -511.73 1324.7
387.61 -497.87 1288.8
396.15 -504.49 1306.0
399.55 -504.52 1306.0
397.15 -497.27 1287.3
401.34 -498.33 1290.0
414.82 -510.81 1322.3
421.93 -515.31 1334.0
417.41 -505.65 1309.0
420.24 -504.97 1307.2
425.95 -507.73 1314.4
419.45 -496.02 1284.0
421.91 -494.99 1281.4
439.73 -511.87 1325.1
446.73 -515.99 1335.7
447.48 -512.88 1327.7
449.71 -511.50 1324.1
449.78 -507.71 1314.3
449.81 -503.92 1304.5
449.48 -499.79 1293.8
459.03 -506.63 1311.5
473.03 -518.25 1341.6
476.48 -518.22 1341.5
474.55 -512.37 1326.4
479.55 -514.05 1330.7
484.89 -516.06 1335.9
492.19 -520.12 1346.4
495.96 -520.41 1347.2
486.34 -506.74 1311.8
487.07 -503.98 1304.7
492.73 -506.32 1310.7
489.76 -499.82 1293.9
497.76 -504.54 1306.1
517.95 -521.45 1349.9
527.49 -527.49 1365.5
519.71 -516.25 1336.4
519.68 -512.80 1327.5
527.55 -517.13 1338.7
523.31 -509.63 1319.3
512.71 -496.06 1284.1
507.90 -488.24 1263.9
521.01 -497.63 1288.2
552.68 -524.52 1357.8
567.18 -534.87 1384.6
558.10 -523.00 1353.9
568.01 -528.96 1369.3
582.35 -538.94 1395.1
570.53 -524.74 1358.4
560.74 -512.58 1326.9
580.30 -527.23 1364.8
603.37 -544.86 1410.5
613.23 -550.43 1424.9
604.42 -539.27 1396.0
591.72 -524.80 1358.5
594.36 -524.02 1356.5
591.29 -518.25 1341.6
604.19 -526.46 1362.8
623.72 -540.32 1398.7
617.55 -531.88 1376.9
615.15 -526.77 1363.6
621.66 -529.30 1370.2
623.49 -527.84 1366.4
620.58 -522.41 1352.4
616.03 -515.67 1334.9
602.66 -501.65 1298.6
597.91 -494.93 1281.2
616.74 -507.70 1314.3
634.90 -519.78 1345.6
649.56 -528.87 1369.1
651.71 -527.74 1366.2
630.97 -508.19 1315.5
621.09 -497.54 1288.0
631.28 -503.00 1302.1
639.88 -507.14 1312.8
637.70 -502.74 1301.4
645.08 -505.88 1309.6
658.37 -513.60 1329.5
656.15 -509.20 1318.2
656.42 -506.77 1311.9
673.23 -517.07 1338.5
686.30 -524.41 1357.5
685.75 -521.31 1349.5
683.44 -516.92 1338.1
684.54 -515.13 1333.5
701.66 -525.36 1360.0
720.19 -536.54 1388.9
715.24 -530.20 1372.5
706.26 -520.95 1348.6
724.50 -531.78 1376.6
751.27 -548.72 1420.5
747.12 -543.03 1405.7
746.02 -539.60 1396.9
778.02 -560.02 1449.7
333.27 -624.89 1606.9
320.00 -592.59 1523.8
314.67 -575.61 1480.1
326.03 -589.20 1515.1
337.95 -603.49 1551.8
333.37 -588.29 1512.8
322.07 -561.75 1444.5
320.10 -551.90 1419.2
320.51 -546.32 1404.8
314.74 -530.45 1364.0
315.56 -525.94 1352.4
329.43 -543.02 1396.3
337.87 -550.88 1416.6
333.92 -538.57 1384.9
332.68 -530.87 1365.1
333.58 -526.71 1354.4
334.43 -522.55 1343.7
342.75 -530.03 1362.9
352.78 -539.97 1388.5
350.84 -531.57 1366.9
347.38 -521.06 1339.9
353.03 -524.30 1348.2
359.43 -528.58 1359.2
360.09 -524.41 1348.5
351.44 -506.89 1303.4
345.27 -493.25 1268.3
354.31 -501.39 1289.3
370.72 -519.69 1336.4
377.49 -524.30 1348.2
375.42 -516.63 1328.5
374.52 -510.71 1313.3
374.85 -506.56 1302.6
382.96 -512.90 1318.9
390.62 -518.53 1333.4
391.18 -514.71 1323.5
395.97 -516.49 1328.1
403.22 -521.40 1340.7
411.88 -528.05 1357.8
415.13 -527.71 1357.0
410.09 -516.92 1329.2
411.60 -514.50 1323.0
409.43 -507.56 1305.2
402.08 -494.37 1271.2
408.53 -498.21 1281.1
421.34 -509.68 1310.6
429.08 -514.90 1324.0
424.65 -505.54 1299.9
413.36 -488.22 1255.4
418.10 -489.96 1259.9
435.66 -506.58 1302.6
447.43 -516.26 1327.5
456.89 -523.16 1345.3
464.31 -527.63 1356.8
460.77 -519.67 1336.3
457.44 -512.06 1316.7
458.05 -508.94 1308.7
463.61 -511.33 1314.9
471.39 -516.12 1327.2
474.49 -515.75 1326.2
479.81 -517.78 1331.4
485.47 -520.15 1337.5
484.71 -515.65 1326.0
480.65 -507.73 1305.6
476.82 -500.16 1286.1
483.41 -503.55 1294.8
492.02 -508.98 1308.8
492.37 -505.86 1300.8
497.04 -507.19 1304.2
513.18 -520.11 1337.4
520.65 -524.14 1347.8
510.45 -510.45 1312.6
509.68 -506.31 1301.9
516.11 -509.32 1309.7
519.44 -509.26 1309.5
517.54 -504.10 1296.3
516.98 -500.31 1286.5
534.37 -513.81 1321.2
550.49 -525.94 1352.4
548.20 -520.44 1338.3
532.93 -502.77 1292.8
536.93 -503.37 1294.4
569.58 -530.66 1364.6
578.11 -535.29 1376.5
561.42 -516.64 1328.5
573.97 -524.97 1349.9
589.21 -535.65 1377.4
590.80 -533.86 1372.8
595.74 -535.09 1376.0
596.17 -532.29 1368.7
601.86 -534.19 1373.6
601.48 -530.72 1364.7
600.69 -526.92 1354.9
606.37 -528.81 1359.8
612.07 -530.70 1364.7
622.06 -536.26 1378.9
616.52 -528.45 1358.9
606.20 -516.65 1328.5
607.15 -514.53 1323.1
605.30 -510.09 1311.7
613.33 -513.96 1321.6
630.57 -525.48 1351.2
632.31 -524.02 1347.5
633.23 -521.89 1342.0
645.44 -529.05 1360.4
644.73 -525.60 1351.5
628.06 -509.24 1309.5
623.10 -502.50 1292.1
624.65 -501.06 1288.4
624.11 -497.96 1280.5
628.94 -499.16 1283.5
642.95 -507.59 1305.2
664.60 -521.94 1342.1
669.15 -522.77 1344.3
665.25 -517.03 1329.5
679.54 -525.41 1351.1
707.55 -544.27 1399.6
721.64 -552.28 1420.1
713.90 -543.58 1397.8
709.95 -537.84 1383.0
714.16 -538.31 1384.2
716.20 -537.15 1381.2
733.52 -547.40 1407.6
750.06 -556.98 1432.2
747.77 -552.54 1420.8
751.62 -552.66 1421.1
762.57 -557.98 1434.8
778.48 -566.85 1457.6
327.79 -611.06 1560.9
321.00 -591.12 1509.9
332.23 -604.43 1543.9
337.47 -606.64 1549.6
326.05 -579.22 1479.6
323.43 -567.88 1450.6
329.50 -571.88 1460.8
328.13 -563.05 1438.2
320.77 -544.24 1390.2
312.11 -523.66 1337.6
318.21 -528.02 1348.8
336.29 -551.95 1409.9
341.09 -553.81 1414.6
338.38 -543.56 1388.5
338.00 -537.24 1372.3
339.12 -533.40 1362.5
347.94 -541.64 1383.6
355.71 -548.09 1400.0
351.24 -535.73 1368.5
344.27 -519.85 1327.9
345.63 -516.73 1319.9
352.44 -521.75 1332.8
354.01 -518.98 1325.7
356.75 -517.98 1323.1
361.94 -520.51 1329.6
360.96 -514.20 1313.5
366.91 -517.79 1322.6
375.42 -524.89 1340.8
374.85 -519.29 1326.5
377.55 -518.28 1323.9
381.79 -519.38 1326.7
381.87 -514.84 1315.1
380.57 -508.54 1299.0
383.43 -507.88 1297.3
390.57 -512.83 1310.0
400.73 -521.64 1332.5
412.09 -531.84 1358.5
414.25 -530.10 1354.1
408.93 -518.90 1325.5
409.60 -515.41 1316.6
406.58 -507.38 1296.1
399.78 -494.81 1263.9
405.93 -498.33 1272.9
422.15 -514.07 1313.1
433.36 -523.50 1337.2
438.28 -525.24 1341.7
435.30 -517.56 1322.1
434.30 -512.34 1308.7
446.61 -522.78 1335.4
447.67 -519.98 1328.2
447.48 -515.80 1317.6
460.30 -526.56 1345.0
462.55 -525.15 1341.4
462.62 -521.31 1331.6
466.67 -521.98 1333.3
464.49 -515.72 1317.3
464.43 -511.89 1307.6
470.64 -514.98 1315.5
479.11 -520.48 1329.5
486.69 -524.93 1340.9
487.88 -522.48 1334.6
484.49 -515.19 1316.0
482.32 -509.30 1301.0
487.95 -511.67 1307.0
495.60 -516.11 1318.3
499.30 -516.40 1319.1
507.69 -521.51 1332.1
509.75 -520.08 1328.5
501.97 -508.71 1299.4
504.61 -507.97 1297.6
517.17 -517.17 1321.1
531.56 -528.06 1348.9
543.30 -536.19 1369.7
544.67 -534.06 1364.2
547.43 -533.30 1362.3
551.93 -534.24 1364.7
553.61 -532.45 1360.1
558.47 -533.73 1363.4
553.31 -525.47 1342.3
550.93 -519.94 1328.1
577.48 -541.61 1383.5
595.16 -554.74 1417.0
589.55 -546.15 1395.1
583.84 -537.56 1373.2
579.89 -530.68 1355.6
589.61 -536.33 1370.0
603.51 -545.69 1393.9
