ply
format ascii 1.0
element vertex 2295
property float x
property float y
property float z
end_header
888.06 132.55 1278.1
886.88 131.88 1271.7
886.25 131.30 1266.1
890.17 131.39 1267.0
902.71 132.75 1280.1
896.30 131.33 1266.4
886.95 129.48 1248.6
910.51 132.44 1277.1
927.78 134.46 1296.6
905.01 130.69 1260.2
896.69 129.02 1244.1
921.59 132.13 1274.1
934.89 133.55 1287.9
945.88 134.64 1298.4
957.49 135.81 1309.6
960.30 135.73 1308.8
957.19 134.82 1300.0
948.72 133.15 1284.0
954.44 133.49 1287.2
967.90 134.90 1300.8
977.82 135.81 1309.6
994.95 137.71 1327.9
994.76 137.21 1323.1
1002.96 137.86 1329.4
1037.64 142.14 1370.7
1051.36 143.53 1384.0
1060.89 144.34 1391.8
1095.87 148.59 1432.9
1150.40 155.46 1499.1
898.61 208.61 2063.1
894.72 206.47 2042.0
885.91 203.24 2010.0
879.78 200.65 1984.5
875.97 198.62 1964.4
852.92 192.28 1901.6
834.50 187.04 1849.9
831.49 185.30 1832.7
829.65 183.84 1818.2
830.23 182.93 1809.2
838.69 183.76 1817.4
833.78 181.66 1796.6
830.87 180.02 1780.4
834.66 179.84 1778.7
824.00 176.57 1746.3
802.52 171.03 1691.5
794.09 168.31 1664.6
805.36 169.78 1679.1
819.28 171.78 1699.0
820.68 171.16 1692.8
801.11 166.19 1643.6
780.46 161.05 1592.8
775.87 159.26 1575.1
781.36 159.55 1577.9
792.64 161.00 1592.4
807.98 163.27 1614.8
819.39 164.72 1629.1
805.23 161.05 1592.8
795.44 158.28 1565.4
814.98 161.34 1595.7
836.45 164.76 1629.5
830.67 162.79 1610.0
813.79 158.69 1569.5
799.97 155.22 1535.1
797.56 153.98 1522.9
795.09 152.75 1510.7
771.15 147.43 1458.1
763.82 145.31 1437.2
776.11 146.93 1453.2
787.05 148.29 1466.6
782.92 146.80 1451.8
776.34 144.87 1432.8
787.79 146.30 1447.0
787.82 145.62 1440.2
774.86 142.55 1409.8
777.19 142.30 1407.4
792.07 144.35 1427.6
810.42 147.01 1453.9
816.22 147.37 1457.5
800.05 143.79 1422.1
793.54 141.96 1404.0
805.15 143.38 1418.1
825.70 146.37 1447.7
834.48 147.26 1456.4
817.94 143.69 1421.1
797.28 139.43 1379.0
791.96 137.89 1363.7
814.68 141.21 1396.6
844.58 145.75 1441.4
849.39 145.93 1443.3
834.43 142.73 1411.6
827.48 140.92 1393.8
828.62 140.51 1389.6
840.49 141.90 1403.4
851.90 143.21 1416.3
836.57 140.03 1384.9
823.19 137.20 1356.9
820.58 136.18 1346.8
830.93 137.31 1358.1
846.01 139.22 1376.9
851.22 139.49 1379.5
859.06 140.18 1386.4
855.87 139.08 1375.5
851.58 137.81 1362.9
855.71 137.90 1363.9
849.76 136.38 1348.8
835.75 133.58 1321.2
838.73 133.51 1320.5
862.61 136.75 1352.5
876.39 138.38 1368.6
877.83 138.05 1365.3
887.36 138.98 1374.6
893.67 139.41 1378.8
877.71 136.38 1348.8
875.81 135.54 1340.5
899.57 138.67 1371.4
905.34 139.01 1374.8
899.04 137.50 1359.9
903.70 137.67 1361.6
906.16 137.51 1360.0
896.41 135.50 1340.2
894.37 134.67 1331.9
907.90 136.18 1346.9
909.74 135.94 1344.4
899.82 133.94 1324.7
902.73 133.87 1323.9
903.95 133.54 1320.7
888.79 130.80 1293.7
882.59 129.40 1279.8
887.11 129.58 1281.5
889.93 129.50 1280.8
895.59 129.84 1284.2
901.83 130.27 1288.3
913.25 131.43 1299.8
920.10 131.93 1304.8
906.82 129.55 1281.2
891.14 126.84 1254.5
908.35 128.82 1274.1
941.86 133.09 1316.3
934.82 131.62 1301.7
917.24 128.68 1272.6
931.10 130.15 1287.2
933.29 129.99 1285.7
931.96 129.35 1279.2
955.89 132.20 1307.4
970.48 133.74 1322.7
966.22 132.68 1312.3
955.99 130.82 1293.8
952.82 129.93 1285.0
959.14 130.34 1289.0
955.93 129.45 1280.3
959.85 129.53 1281.1
980.55 131.87 1304.2
1014.53 135.97 1344.7
1041.43 139.09 1375.7
1044.30 139.00 1374.8
1064.69 141.23 1396.8
1112.40 147.06 1454.5
888.20 203.32 2063.8
893.11 203.22 2062.8
900.80 203.75 2068.2
894.51 201.13 2041.6
882.89 197.35 2003.2
869.07 193.13 1960.3
857.91 189.54 1923.9
848.21 186.31 1891.1
839.60 183.36 1861.2
839.49 182.29 1850.3
841.82 181.76 1844.9
840.37 180.42 1831.3
845.55 180.51 1832.2
837.31 177.75 1804.3
831.05 175.44 1780.8
835.26 175.36 1780.0
825.87 172.43 1750.3
814.21 169.07 1716.1
814.84 168.28 1708.1
827.07 169.88 1724.4
839.79 171.57 1741.5
841.28 170.96 1735.3
822.66 166.28 1687.8
797.27 160.30 1627.1
787.47 157.49 1598.6
783.74 155.93 1582.7
786.14 155.59 1579.3
793.88 156.31 1586.6
798.97 156.50 1588.5
789.67 153.88 1562.0
783.87 151.97 1542.6
788.86 152.17 1544.5
797.04 152.97 1552.7
804.80 153.68 1559.9
800.20 152.04 1543.2
797.37 150.75 1530.1
806.04 151.63 1539.1
827.26 154.86 1571.9
825.80 153.83 1561.4
791.09 146.64 1488.5
777.68 143.45 1456.1
792.86 145.55 1477.4
792.53 144.79 1469.7
776.02 141.10 1432.2
778.42 140.86 1429.7
796.10 143.37 1455.3
799.01 143.22 1453.7
785.53 140.14 1422.5
785.94 139.56 1416.6
793.60 140.26 1423.7
789.12 138.83 1409.1
806.55 141.24 1433.6
832.42 145.10 1472.8
827.45 143.58 1457.3
830.80 143.50 1456.6
839.59 144.36 1465.4
823.07 140.89 1430.0
807.41 137.59 1396.5
808.12 137.09 1391.5
818.85 138.30 1403.7
837.69 140.85 1429.7
848.03 141.96 1441.0
837.12 139.52 1416.2
832.21 138.10 1401.7
836.43 138.19 1402.7
836.56 137.62 1396.8
835.63 136.87 1389.3
831.58 135.62 1376.6
829.03 134.63 1366.5
838.88 135.65 1376.9
860.73 138.59 1406.8
873.30 140.02 1421.3
875.97 139.86 1419.6
888.09 141.20 1433.3
888.14 140.62 1427.4
879.72 138.71 1408.0
879.18 138.05 1401.3
872.75 136.48 1385.3
858.81 133.75 1357.6
861.86 133.68 1356.9
885.81 136.83 1388.9
886.76 136.42 1384.8
874.75 134.03 1360.5
876.17 133.71 1357.2
874.86 132.98 1349.8
886.03 134.14 1361.6
909.77 137.19 1392.5
903.01 135.63 1376.7
880.84 131.78 1337.6
881.61 131.38 1333.5
893.39 132.61 1346.1
905.76 133.93 1359.4
905.44 133.36 1353.6
894.53 131.24 1332.2
899.70 131.49 1334.7
904.32 131.66 1336.4
897.17 130.12 1320.8
898.96 129.89 1318.4
899.61 129.49 1314.4
894.59 128.28 1302.1
900.28 128.61 1305.5
910.52 129.59 1315.4
919.09 130.32 1322.8
924.83 130.64 1326.1
930.57 130.97 1329.4
911.11 127.76 1296.8
885.79 123.75 1256.1
897.18 124.88 1267.6
906.88 125.77 1276.6
909.66 125.70 1275.9
928.10 127.78 1297.0
939.05 128.82 1307.6
940.12 128.51 1304.4
940.02 128.03 1299.6
928.76 126.05 1279.4
928.59 125.57 1274.6
951.93 128.27 1302.0
973.60 130.73 1327.0
974.65 130.41 1323.7
959.70 127.96 1298.8
952.38 126.54 1284.4
950.97 125.91 1278.1
940.58 124.10 1259.7
953.44 125.37 1272.5
984.91 129.06 1310.0
1013.50 132.35 1343.4
1035.58 134.77 1367.9
1055.33 136.87 1389.3
1095.69 141.62 1437.5
1128.33 145.34 1475.3
871.46 194.24 2024.9
858.07 190.11 1981.9
893.43 196.77 2051.2
911.89 199.64 2081.2
892.71 194.30 2025.5
871.68 188.61 1966.2
851.19 183.10 1908.8
832.08 177.96 1855.2
834.03 177.35 1848.8
845.43 178.75 1863.4
854.81 179.70 1873.4
860.91 179.96 1876.1
856.16 177.97 1855.2
838.32 173.28 1806.4
815.63 167.66 1747.8
804.54 164.46 1714.5
810.31 164.73 1717.3
814.80 164.74 1717.4
817.15 164.32 1713.0
830.68 166.14 1731.9
830.00 165.11 1721.2
817.98 161.85 1687.2
817.16 160.82 1676.5
809.27 158.43 1651.6
796.88 155.18 1617.7
790.97 153.22 1597.3
794.29 153.07 1595.7
803.85 154.11 1606.5
816.14 155.66 1622.7
813.65 154.39 1609.4
797.12 150.48 1568.7
791.29 148.62 1549.3
790.38 147.70 1539.7
789.43 146.78 1530.1
799.44 147.90 1541.8
810.88 149.27 1556.1
802.96 147.08 1533.2
807.47 147.17 1534.3
820.37 148.79 1551.1
797.79 143.99 1501.1
783.93 140.80 1467.8
799.61 142.93 1490.0
800.72 142.44 1484.9
785.67 139.09 1450.0
777.14 136.92 1427.4
784.30 137.53 1433.7
806.36 140.73 1467.1
811.21 140.91 1469.0
789.96 136.58 1423.8
778.71 134.01 1397.0
790.73 135.45 1412.0
824.30 140.55 1465.2
837.48 142.14 1481.8
818.25 138.24 1441.2
809.23 136.10 1418.8
805.07 134.79 1405.1
801.35 133.56 1392.3
798.08 132.42 1380.4
803.77 132.77 1384.0
819.01 134.68 1404.0
825.25 135.11 1408.5
822.41 134.05 1397.4
823.58 133.65 1393.3
831.35 134.32 1400.3
846.80 136.22 1420.1
858.22 137.46 1433.0
859.41 137.06 1428.8
857.50 136.17 1419.5
850.37 134.46 1401.7
853.55 134.39 1401.0
859.84 134.81 1405.3
857.80 133.92 1396.1
863.05 134.17 1398.7
878.27 135.97 1417.4
884.09 136.30 1420.9
880.94 135.25 1409.9
884.63 135.25 1410.0
881.41 134.21 1399.1
876.02 132.84 1384.8
889.27 134.30 1400.0
903.12 135.83 1416.0
893.36 133.82 1395.1
874.91 130.53 1360.7
870.38 129.33 1348.3
872.31 129.10 1345.8
886.18 130.63 1361.8
909.38 133.52 1391.9
901.53 131.84 1374.4
889.22 129.53 1350.3
901.01 130.73 1362.9
897.96 129.78 1352.9
895.97 128.99 1344.7
907.81 130.19 1357.2
910.24 130.03 1355.6
904.31 128.69 1341.6
898.33 127.35 1327.6
887.81 125.38 1307.0
885.63 124.60 1298.9
913.27 128.00 1334.3
937.08 130.84 1363.9
922.51 128.32 1337.7
912.95 126.51 1318.9
920.38 127.07 1324.6
925.55 127.31 1327.1
931.30 127.62 1330.4
911.84 124.49 1297.8
906.05 123.25 1284.8
935.92 126.85 1322.3
933.01 125.99 1313.4
922.55 124.12 1294.0
944.50 126.62 1320.0
959.56 128.17 1336.2
948.44 126.23 1315.9
937.25 124.29 1295.7
936.53 123.76 1290.1
944.59 124.38 1296.6
960.91 126.08 1314.3
973.75 127.31 1327.2
985.45 128.39 1338.4
981.78 127.46 1328.7
975.10 126.15 1315.1
975.52 125.76 1311.1
966.38 124.15 1294.3
981.09 125.61 1309.4
1006.64 128.43 1338.9
1030.48 131.02 1365.9
1067.64 135.28 1410.3
1103.14 139.30 1452.2
1130.92 142.33 1483.7
870.13 187.57 2009.7
858.20 183.90 1970.4
908.48 193.52 2073.5
875.89 184.40 1975.7
834.72 174.71 1871.9
817.57 170.13 1822.8
821.09 169.88 1820.2
823.37 169.38 1814.8
823.13 168.37 1803.9
834.90 169.81 1819.4
835.46 168.97 1810.4
829.68 166.86 1787.8
818.74 163.75 1754.5
800.89 159.29 1706.7
801.11 158.46 1697.8
810.70 159.48 1708.7
818.17 160.08 1715.1
817.49 159.08 1704.4
803.77 155.57 1666.8
793.36 152.73 1636.4
793.74 151.99 1628.5
793.21 151.09 1618.8
788.67 149.43 1601.0
787.58 148.45 1590.5
794.89 149.04 1596.9
795.09 148.31 1589.0
797.04 147.90 1584.7
801.22 147.92 1584.8
791.85 145.44 1558.3
786.45 143.72 1539.8
787.34 143.15 1533.8
786.38 142.26 1524.2
795.92 143.27 1535.0
805.05 144.19 1544.9
793.86 141.48 1515.9
788.60 139.85 1498.4
791.17 139.62 1495.9
804.96 141.36 1514.6
826.33 144.41 1547.2
815.79 141.88 1520.1
792.36 137.14 1469.3
785.34 135.27 1449.4
784.43 134.47 1440.8
774.40 132.13 1415.6
779.63 132.39 1418.5
805.10 136.07 1457.9
804.13 135.27 1449.4
802.15 134.31 1439.1
823.99 137.33 1471.4
831.29 137.91 1477.6
817.53 135.00 1446.5
810.53 133.24 1427.5
813.33 133.09 1426.0
811.66 132.22 1416.6
809.95 131.34 1407.3
808.21 130.47 1397.9
814.43 130.89 1402.4
836.23 133.80 1433.5
848.58 135.17 1448.3
840.76 133.34 1428.6
837.43 132.23 1416.7
824.88 129.68 1389.4
820.40 128.41 1375.8
841.98 131.22 1405.9
851.86 132.19 1416.3
872.60 134.82 1444.5
885.68 136.26 1459.9
859.93 131.73 1411.4
838.14 127.85 1369.8
860.04 130.64 1399.7
889.37 134.53 1441.4
870.55 131.13 1405.0
842.64 126.40 1354.2
848.87 126.80 1358.6
860.94 128.07 1372.2
868.28 128.63 1378.2
874.04 128.96 1381.7
872.86 128.26 1374.2
872.18 127.64 1367.5
890.83 129.84 1391.1
900.40 130.70 1400.4
893.78 129.22 1384.5
894.15 128.76 1379.5
881.98 126.50 1355.4
878.46 125.49 1344.6
884.73 125.89 1348.8
885.53 125.51 1344.7
914.91 129.16 1383.9
928.98 130.64 1399.7
918.24 128.62 1378.1
922.93 128.78 1379.8
935.96 130.10 1393.9
941.80 130.40 1397.2
923.06 127.32 1364.1
899.16 123.55 1323.7
900.95 123.32 1321.3
932.01 127.09 1361.7
950.22 129.09 1383.1
929.45 125.79 1347.8
904.02 121.89 1306.0
895.50 120.29 1288.8
903.46 120.91 1295.5
913.15 121.75 1304.5
911.99 121.15 1298.0
923.44 122.22 1309.5
964.88 127.24 1363.2
972.43 127.76 1368.9
942.38 123.37 1321.8
945.81 123.37 1321.8
959.71 124.73 1336.4
948.59 122.84 1316.1
945.00 121.94 1306.4
950.74 122.24 1309.7
958.84 122.84 1316.1
973.43 124.27 1331.4
979.22 124.56 1334.6
983.83 124.71 1336.2
992.60 125.38 1343.4
999.02 125.75 1347.3
1014.37 127.24 1363.3
1020.82 127.60 1367.2
1014.73 126.40 1354.3
1019.38 126.54 1355.8
1036.64 128.24 1374.0
1065.40 131.35 1407.3
1109.95 136.38 1461.2
869.51 182.23 2008.3
840.07 175.01 1928.7
873.06 180.81 1992.6
911.56 187.67 2068.2
894.24 183.03 2017.1
854.37 173.85 1915.9
837.31 169.40 1866.8
829.04 166.76 1837.8
819.00 163.80 1805.1
803.02 159.69 1759.9
797.65 157.73 1738.2
820.59 161.35 1778.2
837.81 163.82 1805.3
834.50 162.26 1788.2
824.76 159.48 1757.6
816.16 156.95 1729.7
818.11 156.47 1724.4
823.05 156.56 1725.3
819.80 155.10 1709.2
826.00 155.43 1712.9
834.82 156.25 1721.9
817.91 152.27 1678.1
800.81 148.30 1634.3
791.46 145.79 1606.7
786.41 144.11 1588.1
801.26 146.06 1609.7
807.73 146.48 1614.3
811.52 146.41 1613.5
817.56 146.74 1617.2
793.36 141.67 1561.3
773.91 137.50 1515.3
790.68 139.77 1540.3
805.72 141.71 1561.7
804.33 140.76 1551.2
801.97 139.65 1539.0
803.72 139.26 1534.7
810.56 139.75 1540.1
811.36 139.20 1534.1
824.29 140.73 1550.9
835.88 142.02 1565.1
813.58 137.56 1516.0
804.81 135.42 1492.4
812.08 135.99 1498.7
806.98 134.50 1482.2
793.20 131.57 1450.0
782.65 129.21 1424.0
793.20 130.34 1436.4
798.47 130.59 1439.2
802.29 130.61 1439.3
816.83 132.36 1458.6
816.29 131.66 1450.9
814.24 130.73 1440.7
819.54 130.98 1443.4
816.44 129.89 1431.4
810.32 128.33 1414.3
820.54 129.36 1425.7
830.80 130.40 1437.0
832.09 130.01 1432.8
850.95 132.37 1458.8
872.92 135.19 1489.8
874.28 134.80 1485.6
849.75 130.44 1437.5
816.88 124.85 1375.9
816.46 124.24 1369.2
840.59 127.36 1403.6
853.04 128.69 1418.2
874.30 131.33 1447.3
890.49 133.19 1467.8
866.30 129.02 1421.9
851.30 126.25 1391.3
880.02 129.96 1432.2
900.52 132.43 1459.4
871.23 127.59 1406.0
838.04 122.21 1346.9
838.45 121.77 1341.9
851.55 123.16 1357.3
860.46 123.93 1365.8
866.19 124.25 1369.3
864.45 123.49 1360.9
870.18 123.81 1364.4
895.82 126.94 1398.9
916.19 129.30 1424.9
920.43 129.38 1425.8
924.66 129.45 1426.6
914.76 127.56 1405.7
895.51 124.38 1370.7
885.97 122.57 1350.7
879.65 121.21 1335.8
900.76 123.63 1362.5
922.52 126.13 1390.0
918.94 125.15 1379.2
925.85 125.60 1384.2
942.23 127.33 1403.2
943.07 126.95 1399.1
919.86 123.35 1359.4
918.36 122.68 1352.0
942.10 125.38 1381.7
952.44 126.27 1391.5
948.12 125.22 1380.0
942.06 123.96 1366.0
929.70 121.87 1343.1
919.54 120.09 1323.4
925.85 120.46 1327.6
931.60 120.76 1330.9
924.74 119.43 1316.2
931.05 119.80 1320.3
967.33 124.02 1366.7
977.21 124.83 1375.6
947.74 120.62 1329.3
943.64 119.66 1318.8
951.14 120.18 1324.4
945.24 119.01 1311.5
947.48 118.86 1309.9
952.06 119.01 1311.5
958.98 119.45 1316.3
981.82 121.86 1342.9
995.89 123.17 1357.3
979.26 120.68 1330.0
965.49 118.57 1306.7
981.94 120.17 1324.3
1006.78 122.78 1353.1
1030.53 125.24 1380.2
1041.80 126.17 1390.4
1044.71 126.09 1389.5
1060.23 127.52 1405.3
1079.41 129.38 1425.8
1111.92 132.82 1463.8
1166.33 138.85 1530.2
1202.78 142.70 1572.6
882.62 180.78 2050.8
874.03 177.95 2018.7
881.62 178.42 2024.1
879.63 176.97 2007.6
888.42 177.68 2015.7
888.35 176.63 2003.8
862.65 170.52 1934.5
852.15 167.47 1899.9
849.28 165.95 1882.6
848.81 164.91 1870.8
842.48 162.75 1846.4
817.34 157.00 1781.1
820.74 156.77 1778.5
843.00 160.12 1816.5
845.19 159.65 1811.1
842.27 158.22 1794.9
841.41 157.19 1783.2
834.51 155.04 1758.9
830.93 153.54 1741.9
827.28 152.04 1724.8
833.51 152.36 1728.5
832.80 151.42 1717.8
807.14 145.97 1656.0
803.16 144.48 1639.1
807.02 144.41 1638.3
802.04 142.77 1619.7
816.96 144.67 1641.2
834.64 147.04 1668.1
849.75 148.92 1689.5
848.30 147.91 1677.9
814.73 141.33 1603.3
797.17 137.58 1560.8
815.41 140.02 1588.5
823.69 140.73 1596.5
816.87 138.87 1575.4
810.87 137.16 1556.0
809.42 136.24 1545.6
827.89 138.66 1573.0
840.40 140.07 1589.0
828.18 137.36 1558.3
814.42 134.42 1524.9
811.37 133.27 1511.9
821.04 134.21 1522.5
819.82 133.37 1513.0
805.69 130.45 1479.8
801.95 129.22 1466.0
801.52 128.55 1458.3
815.51 130.18 1476.8
822.31 130.65 1482.1
804.38 127.20 1443.1
797.49 125.53 1424.1
811.06 127.08 1441.6
823.71 128.47 1457.4
820.17 127.33 1444.5
807.69 124.82 1416.1
804.51 123.77 1404.1
819.69 125.54 1424.2
822.46 125.40 1422.6
817.22 124.04 1407.2
838.03 126.64 1436.6
862.99 129.83 1472.9
870.89 130.44 1479.8
851.92 127.04 1441.2
834.33 123.87 1405.3
850.30 125.70 1426.0
862.25 126.91 1439.8
861.92 126.32 1433.0
870.84 127.07 1441.6
874.61 127.08 1441.7
877.34 126.93 1440.0
888.91 128.06 1452.8
891.13 127.84 1450.3
882.87 126.12 1430.8
878.73 125.01 1418.1
869.79 123.22 1397.9
867.65 122.41 1388.7
877.66 123.31 1398.9
871.76 121.97 1383.7
862.07 120.12 1362.8
861.38 119.54 1356.1
867.64 119.92 1360.4
885.75 121.92 1383.2
897.46 123.04 1395.8
900.56 122.97 1395.0
903.12 122.82 1393.4
915.45 124.01 1406.8
916.38 123.64 1402.6
908.54 122.10 1385.1
903.92 121.00 1372.7
904.75 120.63 1368.5
906.12 120.34 1365.3
909.69 120.35 1365.3
924.34 121.81 1381.9
922.92 121.16 1374.5
905.87 118.46 1343.9
907.15 118.17 1340.6
929.15 120.58 1367.9
940.57 121.59 1379.4
936.81 120.65 1368.7
944.88 121.23 1375.3
950.13 121.45 1377.7
949.15 120.87 1371.2
950.99 120.65 1368.7
951.10 120.21 1363.8
951.76 119.85 1359.7
948.40 118.99 1349.9
957.64 119.70 1358.0
974.97 121.43 1377.5
965.22 119.77 1358.8
951.93 117.69 1335.2
963.52 118.69 1346.5
970.48 119.12 1351.4
962.88 117.76 1336.0
964.58 117.55 1333.5
969.19 117.69 1335.1
970.88 117.47 1332.7
990.21 119.39 1354.4
995.45 119.59 1356.7
968.76 115.98 1315.7
970.38 115.76 1313.3
1004.07 119.36 1354.1
1039.68 123.17 1397.3
1074.24 126.82 1438.7
1072.45 126.17 1431.4
1059.25 124.19 1408.9
1074.20 125.51 1423.8
1089.80 126.89 1439.6
1128.38 130.94 1485.4
901.42 180.28 2107.2
906.43 180.19 2106.2
904.48 177.67 2076.6
871.00 170.08 1987.9
865.27 167.96 1963.2
853.37 164.68 1924.9
854.69 163.98 1916.7
868.22 165.61 1935.8
860.92 163.28 1908.4
855.56 161.33 1885.7
867.06 162.57 1900.2
859.91 160.32 1873.9
840.53 155.83 1821.4
841.06 155.06 1812.3
837.34 153.51 1794.3
828.45 151.04 1765.4
836.88 151.74 1773.6
838.93 151.28 1768.2
832.80 149.36 1745.8
827.43 147.60 1725.1
818.51 145.22 1697.4
804.24 141.93 1658.9
797.24 139.94 1635.7
810.76 141.56 1654.6
815.54 141.65 1655.6
811.47 140.20 1638.7
816.22 140.29 1639.7
825.42 141.13 1649.6
836.01 142.21 1662.2
829.55 140.39 1640.9
816.23 137.43 1606.3
818.18 137.06 1601.9
820.10 136.68 1597.6
812.41 134.72 1574.7
799.11 131.85 1541.1
787.05 129.22 1510.3
784.58 128.17 1498.1
802.03 130.38 1523.9
820.97 132.80 1552.3
816.16 131.38 1535.6
804.23 128.83 1505.8
803.97 128.17 1498.1
807.93 128.18 1498.2
800.49 126.39 1477.3
803.45 126.26 1475.7
816.45 127.69 1492.5
808.38 125.83 1470.8
812.76 125.92 1471.8
826.32 127.42 1489.4
813.25 124.82 1459.0
802.98 122.68 1433.9
813.64 123.73 1446.2
834.64 126.34 1476.8
839.02 126.43 1477.7
829.07 124.36 1453.6
828.94 123.78 1446.8
826.79 122.90 1436.5
811.62 120.11 1403.8
817.85 120.49 1408.3
849.73 124.63 1456.7
858.09 125.30 1464.5
848.78 123.39 1442.2
855.11 123.77 1446.6
862.98 124.36 1453.6
861.17 123.56 1444.2
856.25 122.32 1429.7
850.75 121.01 1414.4
854.99 121.09 1415.4
870.61 122.78 1435.1
886.83 124.53 1455.6
886.98 124.03 1449.7
877.18 122.14 1427.6
873.58 121.13 1415.8
872.56 120.48 1408.2
875.73 120.41 1407.4
886.29 121.36 1418.5
879.92 119.99 1402.5
856.48 116.31 1359.5
863.27 116.75 1364.7
878.63 118.35 1383.3
878.51 117.85 1377.5
889.12 118.79 1388.4
900.84 119.87 1401.1
902.33 119.59 1397.8
904.89 119.45 1396.1
917.23 120.59 1409.5
919.80 120.45 1407.9
913.61 119.17 1392.8
912.29 118.53 1385.4
917.55 118.74 1387.9
925.57 119.31 1394.6
935.82 120.16 1404.5
927.81 118.67 1387.1
904.72 115.27 1347.3
899.32 114.14 1334.2
911.76 115.28 1347.4
932.65 117.47 1373.0
941.83 118.18 1381.3
933.01 116.63 1363.2
934.29 116.35 1359.9
943.48 117.05 1368.1
946.45 116.98 1367.3
938.61 115.57 1350.9
929.56 114.03 1332.9
944.47 115.44 1349.2
956.57 116.48 1361.5
959.51 116.41 1360.6
969.36 117.17 1369.6
982.12 118.28 1382.5
992.03 119.04 1391.4
988.62 118.20 1381.6
978.19 116.54 1362.1
968.86 115.01 1344.3
968.81 114.59 1339.4
979.30 115.42 1349.0
987.47 115.97 1355.4
986.82 115.48 1349.8
970.81 113.20 1323.2
958.25 111.35 1301.4
977.04 113.13 1322.3
1022.64 118.00 1379.2
1071.99 123.26 1440.7
1092.31 125.16 1462.9
1070.81 122.27 1429.2
1067.19 121.44 1419.4
1095.98 124.29 1452.7
1122.47 126.85 1482.7
884.47 172.58 2080.2
879.62 170.59 2056.3
908.17 175.07 2110.2
902.26 171.86 2071.5
855.55 162.00 1952.6
837.27 157.60 1899.7
855.14 160.03 1928.9
883.28 164.33 1980.8
875.72 161.98 1952.5
848.77 156.10 1881.5
830.58 151.88 1830.7
829.13 150.75 1817.1
839.27 151.73 1828.9
836.08 150.31 1811.7
834.50 149.18 1798.2
829.05 147.39 1776.5
816.74 144.40 1740.5
822.99 144.70 1744.2
830.96 145.30 1751.4
829.94 144.34 1739.8
823.70 142.48 1717.4
813.89 140.02 1687.8
803.95 137.57 1658.3
801.31 136.39 1644.0
805.20 136.33 1643.3
799.82 134.71 1623.7
808.52 135.46 1632.8
827.02 137.84 1661.4
810.84 134.44 1620.5
797.62 131.57 1585.8
832.85 136.67 1647.4
861.55 140.66 1695.5
825.12 134.03 1615.5
788.36 127.41 1535.8
798.83 128.46 1548.3
803.38 128.54 1549.4
786.27 125.18 1508.8
779.16 123.43 1487.8
787.76 124.18 1496.8
798.26 125.22 1509.3
798.04 124.57 1501.5
792.62 123.13 1484.1
801.27 123.87 1493.1
814.22 125.26 1509.9
821.53 125.78 1516.1
838.40 127.76 1539.9
841.00 127.54 1537.4
821.49 124.00 1494.6
813.37 122.20 1472.9
812.91 121.56 1465.2
805.62 119.91 1445.3
799.22 118.40 1427.2
791.77 116.76 1407.4
795.03 116.70 1406.7
818.47 119.59 1441.5
827.73 120.40 1451.2
825.61 119.54 1440.9
821.95 118.48 1428.1
818.24 117.42 1415.3
834.52 119.22 1437.0
846.85 120.44 1451.7
835.54 118.31 1426.0
829.69 116.96 1409.8
840.53 117.97 1421.9
842.24 117.69 1418.6
834.23 116.07 1399.0
820.51 113.66 1370.1
806.67 111.27 1341.1
830.37 114.04 1374.6
866.10 118.44 1427.6
881.26 120.00 1446.4
880.87 119.44 1439.7
861.65 116.34 1402.3
847.53 113.95 1373.5
860.09 115.16 1388.1
876.39 116.85 1408.5
889.07 118.05 1422.9
886.42 117.21 1412.8
866.19 114.07 1374.9
875.67 114.84 1384.3
889.47 116.18 1400.3
887.76 115.48 1392.0
889.79 115.28 1389.5
892.35 115.14 1387.9
884.07 113.62 1369.5
877.36 112.30 1353.6
900.50 114.81 1383.8
916.12 116.33 1402.2
903.90 114.33 1378.0
895.97 112.88 1360.6
900.08 112.95 1361.5
906.40 113.30 1365.7
928.22 115.58 1393.1
932.39 115.64 1393.9
916.53 113.24 1364.9
918.41 113.04 1362.5
918.61 112.63 1357.5
928.31 113.38 1366.6
945.91 115.09 1387.3
944.98 114.54 1380.7
941.21 113.66 1370.0
945.32 113.72 1370.8
941.48 112.84 1360.1
926.22 110.59 1333.0
918.85 109.31 1317.5
936.03 110.94 1337.2
950.97 112.29 1353.5
956.77 112.56 1356.8
976.41 114.45 1379.5
999.60 116.74 1407.2
1000.87 116.46 1403.8
987.02 114.44 1379.4
988.81 114.23 1376.9
992.33 114.23 1376.8
984.16 112.88 1360.6
984.71 112.54 1356.5
988.19 112.53 1356.4
982.25 111.46 1343.5
973.89 110.12 1327.4
969.03 109.19 1316.1
983.70 110.45 1331.3
1026.94 114.90 1385.0
1085.84 121.07 1459.3
1114.55 123.84 1492.7
1094.30 121.17 1460.5
1091.93 120.49 1452.3
1131.59 124.44 1499.9
1170.81 128.31 1546.6
1197.50 130.79 1576.4
899.27 167.94 2089.5
872.93 162.04 2016.2
883.70 163.06 2028.9
874.91 160.49 1996.8
855.52 156.01 1941.1
871.46 157.98 1965.7
879.37 158.49 1972.0
853.02 152.85 1901.9
835.39 148.83 1851.8
827.02 146.50 1822.8
830.10 146.21 1819.2
843.99 147.82 1839.2
835.39 145.49 1810.2
827.50 143.31 1783.1
836.79 144.11 1793.1
839.76 143.83 1789.5
838.88 142.89 1777.8
840.51 142.38 1771.6
829.65 139.78 1739.2
813.92 136.39 1697.0
790.63 131.77 1639.6
766.67 127.09 1581.4
779.16 128.48 1598.6
796.99 130.72 1626.5
791.58 129.15 1607.0
800.68 129.95 1616.9
811.61 131.04 1630.5
788.66 126.68 1576.2
796.86 127.33 1584.3
852.79 135.57 1686.8
831.61 130.86 1628.2
791.68 123.95 1542.2
799.88 124.60 1550.4
807.19 125.11 1556.7
792.85 122.28 1521.5
793.17 121.72 1514.5
808.33 123.44 1535.9
806.32 122.53 1524.6
793.96 120.06 1493.9
805.44 121.21 1508.1
830.65 124.40 1547.8
836.61 124.69 1551.4
837.34 124.20 1545.3
839.01 123.85 1541.0
826.29 121.40 1510.5
814.89 119.16 1482.6
814.47 118.54 1474.9
815.46 118.13 1469.8
808.18 116.53 1449.9
809.09 116.12 1444.8
807.54 115.36 1435.4
802.03 114.05 1419.1
817.13 115.67 1439.2
829.83 116.93 1454.9
831.19 116.59 1450.7
825.56 115.28 1434.4
819.87 113.97 1418.1
825.63 114.26 1421.7
827.38 113.99 1418.4
822.05 112.76 1403.0
823.75 112.49 1399.7
839.14 114.09 1419.6
844.41 114.31 1422.3
838.45 113.01 1406.1
826.79 110.95 1380.5
810.91 108.35 1348.2
833.08 110.84 1379.1
863.64 114.41 1423.6
873.61 115.24 1433.9
877.36 115.25 1433.9
861.78 112.72 1402.5
856.04 111.50 1387.3
878.09 113.89 1417.1
875.47 113.08 1407.0
869.64 111.86 1391.8
892.92 114.38 1423.2
898.23 114.59 1425.8
890.21 113.10 1407.2
886.93 112.22 1396.3
890.58 112.23 1396.4
896.92 112.57 1400.6
892.48 111.56 1388.1
876.63 109.14 1357.9
868.80 107.73 1340.4
891.93 110.16 1370.6
904.25 111.24 1384.1
888.71 108.89 1354.9
885.67 108.09 1345.0
894.16 108.70 1352.5
897.15 108.64 1351.7
913.97 110.25 1371.7
941.40 113.11 1407.4
948.92 113.58 1413.2
939.18 111.98 1393.3
928.24 110.25 1371.8
926.76 109.65 1364.4
934.24 110.12 1370.2
947.37 111.24 1384.1
958.29 112.10 1394.8
955.65 111.37 1385.7
943.89 109.59 1363.6
949.70 109.85 1366.8
965.79 111.30 1384.8
960.19 110.24 1371.7
951.68 108.86 1354.5
960.36 109.45 1361.9
984.62 111.81 1391.1
985.87 111.54 1387.8
964.51 108.73 1352.8
959.29 107.75 1340.6
969.15 108.46 1349.5
983.13 109.63 1364.1
984.88 109.43 1361.6
981.92 108.71 1352.6
980.10 108.13 1345.3
985.33 108.32 1347.7
989.38 108.38 1348.5
996.38 108.76 1353.2
1024.16 111.40 1386.1
1046.69 113.45 1411.6
1083.61 117.04 1456.3
1173.22 124.98 1555.1
1195.06 126.87 1578.6
1199.47 126.91 1579.0
904.15 163.40 2100.9
877.83 157.69 2027.5
888.63 158.68 2040.2
878.26 155.90 2004.5
858.48 151.50 1947.8
849.77 149.08 1916.8
834.02 145.47 1870.3
836.84 145.12 1865.8
847.84 146.18 1879.4
844.46 144.77 1861.3
853.85 145.54 1871.3
870.34 147.52 1896.6
863.12 145.47 1870.3
844.44 141.53 1819.6
843.68 140.61 1807.9
842.02 139.56 1794.4
838.59 138.23 1777.2
835.94 137.04 1761.9
822.06 134.03 1723.3
811.90 131.66 1692.8
795.10 128.24 1648.8
781.16 125.32 1611.2
802.46 128.05 1646.4
808.10 128.27 1649.2
790.39 124.80 1604.5
783.55 123.07 1582.3
778.40 121.62 1563.7
784.77 121.99 1568.4
822.54 127.20 1635.4
846.17 130.18 1673.8
835.17 127.83 1643.6
828.57 126.18 1622.3
824.16 124.87 1605.5
810.53 122.19 1571.0
797.21 119.58 1537.5
806.81 120.42 1548.2
829.87 123.25 1584.6
828.91 122.50 1575.0
809.71 119.08 1531.0
804.86 117.78 1514.4
822.96 119.85 1540.9
836.44 121.22 1558.6
830.11 119.73 1539.3
811.34 116.46 1497.3
794.30 113.47 1458.9
803.44 114.23 1468.7
814.54 115.27 1482.0
818.94 115.34 1483.0
824.30 115.56 1485.7
820.45 114.48 1471.9
823.84 114.42 1471.2
832.62 115.11 1480.0
836.02 115.05 1479.2
837.45 114.72 1475.0
836.39 114.05 1466.4
849.18 115.27 1482.1
855.05 115.55 1485.6
828.98 111.52 1433.9
815.73 109.25 1404.6
836.05 111.47 1433.2
849.92 112.82 1450.6
847.15 111.96 1439.5
857.03 112.77 1449.9
877.65 114.98 1478.3
888.15 115.85 1489.4
878.18 114.05 1466.3
864.52 111.79 1437.3
865.19 111.40 1432.3
873.09 111.93 1439.2
884.12 112.87 1451.1
888.95 113.00 1452.9
871.84 110.36 1418.9
866.65 109.24 1404.5
881.37 110.63 1422.4
871.91 108.99 1401.3
853.38 106.23 1365.8
864.41 107.16 1377.8
877.08 108.28 1392.2
876.47 107.76 1385.5
869.40 106.46 1368.7
868.17 105.87 1361.2
895.43 108.76 1398.3
912.58 110.39 1419.3
907.60 109.35 1405.9
911.80 109.42 1406.8
918.18 109.74 1411.0
913.66 108.77 1398.5
909.63 107.86 1386.8
919.28 108.58 1396.0
916.30 107.80 1386.0
908.32 106.44 1368.6
907.46 105.93 1361.9
916.56 106.58 1370.3
921.24 106.71 1372.0
909.19 104.91 1348.8
918.87 105.62 1357.9
938.66 107.48 1381.9
928.75 105.94 1362.1
923.83 104.98 1349.8
940.91 106.52 1369.5
943.32 106.39 1367.9
949.70 106.71 1372.0
974.31 109.06 1402.3
991.04 110.52 1421.0
986.65 109.63 1409.5
970.74 107.46 1381.7
973.14 107.33 1380.0
981.30 107.83 1386.4
965.77 105.74 1359.5
949.00 103.53 1331.1
948.96 103.15 1326.2
962.88 104.28 1340.8
978.60 105.60 1357.8
982.08 105.60 1357.7
980.88 105.09 1351.2
980.82 104.71 1346.3
988.40 105.15 1351.9
1016.08 107.71 1384.9
1047.41 110.64 1422.5
1061.66 111.75 1436.8
1068.23 112.05 1440.7
1070.05 111.85 1438.1
1084.99 113.02 1453.1
1181.58 122.23 1571.6
903.26 160.70 2137.4
891.95 157.72 2097.8
896.16 157.51 2094.9
890.50 155.57 2069.1
883.53 153.43 2040.7
869.66 150.12 1996.7
839.57 144.07 1916.2
837.70 142.90 1900.7
843.45 143.04 1902.5
839.44 141.53 1882.5
854.53 143.25 1905.2
866.85 144.47 1921.6
865.63 143.45 1907.9
853.99 140.71 1871.6
849.26 139.14 1850.7
859.08 139.96 1861.6
856.75 138.80 1846.2
849.30 136.83 1819.9
842.15 134.93 1794.6
849.80 135.41 1801.0
857.89 135.95 1808.2
835.08 131.62 1750.6
816.77 128.03 1702.9
822.09 128.18 1704.8
831.34 128.92 1714.7
833.18 128.52 1709.4
819.64 125.77 1672.7
791.83 120.86 1607.5
774.82 117.64 1564.7
791.86 119.60 1590.8
820.61 123.30 1640.0
829.84 124.05 1649.9
824.70 122.65 1631.3
814.05 120.45 1602.0
808.73 119.05 1583.4
817.45 119.73 1592.4
816.60 119.00 1582.8
818.92 118.74 1579.4
846.13 122.08 1623.7
855.92 122.88 1634.4
840.19 120.03 1596.4
811.71 115.39 1534.7
797.49 112.82 1500.5
820.73 115.54 1536.7
838.93 117.53 1563.2
826.92 115.29 1533.4
801.95 111.28 1480.0
798.24 110.23 1466.1
821.76 112.94 1502.2
836.29 114.40 1521.6
845.11 115.06 1530.4
844.28 114.41 1521.7
833.20 112.39 1494.8
824.94 110.76 1473.1
821.98 109.85 1461.1
813.07 108.16 1438.6
803.09 106.34 1414.4
821.19 108.25 1439.7
854.26 112.10 1491.0
860.66 112.43 1495.3
835.10 108.60 1444.4
813.35 105.30 1400.5
826.62 106.54 1417.1
840.46 107.85 1434.4
837.16 106.95 1422.5
849.03 107.99 1436.3
873.19 110.58 1470.8
886.23 111.74 1486.2
877.28 110.13 1464.8
867.22 108.40 1441.8
872.02 108.54 1443.6
880.46 109.12 1451.3
892.04 110.08 1464.1
898.97 110.47 1469.3
884.50 108.23 1439.5
876.73 106.83 1420.9
890.43 108.04 1437.0
901.03 108.87 1448.1
902.68 108.62 1444.7
888.93 106.53 1416.8
878.27 104.81 1394.1
882.99 104.95 1395.8
879.69 104.13 1384.9
873.12 102.93 1369.0
893.41 104.89 1395.1
921.34 107.74 1433.0
928.84 108.18 1438.8
924.42 107.23 1426.2
922.12 106.54 1417.0
920.33 105.91 1408.7
919.06 105.35 1401.2
921.05 105.16 1398.7
910.92 103.60 1377.9
902.37 102.22 1359.6
900.39 101.60 1351.3
898.93 101.04 1343.9
894.11 100.11 1331.5
885.33 98.75 1313.4
899.41 99.93 1329.2
937.11 103.73 1379.6
942.93 103.97 1382.9
941.43 103.41 1375.5
962.51 105.33 1401.0
952.51 103.85 1381.2
944.15 102.55 1363.9
953.37 103.16 1372.1
954.06 102.85 1368.0
962.17 103.34 1374.5
959.97 102.73 1366.3
961.19 102.48 1363.0
968.16 102.85 1367.9
962.43 101.86 1354.8
956.66 100.88 1341.8
968.84 101.80 1354.0
993.28 103.99 1383.1
1001.48 104.47 1389.5
995.67 103.49 1376.5
1002.70 103.85 1381.3
1013.27 104.57 1390.9
1024.47 105.35 1401.2
1055.18 108.13 1438.2
1061.15 108.36 1441.2
1044.59 106.29 1413.7
1064.80 107.97 1436.0
1080.91 109.22 1452.7
1112.00 111.97 1489.3
904.49 156.33 2153.5
885.93 152.18 2096.4
872.58 148.98 2052.2
856.28 145.31 2001.7
833.45 140.58 1936.6
841.25 141.05 1943.0
841.90 140.32 1932.9
825.69 136.80 1884.5
835.02 137.53 1894.6
847.22 138.73 1911.0
849.73 138.33 1905.5
859.16 139.05 1915.5
866.16 139.38 1920.1
863.70 138.19 1903.7
850.81 135.36 1864.6
828.59 131.08 1805.6
820.33 129.04 1777.6
827.91 129.50 1784.0
829.18 128.98 1776.8
831.69 128.66 1772.3
848.22 130.50 1797.7
860.16 131.61 1813.0
840.80 127.95 1762.5
806.11 122.01 1680.7
796.65 119.93 1652.0
818.40 122.54 1688.1
833.75 124.18 1710.6
818.45 121.25 1670.3
788.87 116.25 1601.5
774.05 113.47 1563.2
793.76 115.76 1594.6
812.70 117.90 1624.2
812.03 117.20 1614.5
796.46 114.36 1575.4
775.75 110.82 1526.6
786.16 111.74 1539.3
812.11 114.84 1582.0
840.06 118.20 1628.3
871.41 122.00 1680.6
868.85 121.03 1667.3
849.10 117.70 1621.3
834.74 115.14 1586.1
807.16 110.79 1526.1
795.26 108.62 1496.3
820.85 111.57 1537.0
837.17 113.24 1559.9
822.31 110.69 1524.9
803.97 107.71 1483.7
807.90 107.72 1483.9
834.33 110.72 1525.2
851.32 112.44 1548.9
857.78 112.76 1553.3
854.57 111.81 1540.3
834.29 108.65 1496.7
817.26 105.94 1459.4
823.08 106.20 1463.0
823.50 105.77 1457.0
811.58 103.76 1429.4
828.72 105.47 1453.0
849.92 107.68 1483.4
844.85 106.56 1467.9
836.72 105.06 1447.2
831.51 103.94 1431.8
839.82 104.51 1439.7
850.17 105.33 1451.0
846.39 104.40 1438.2
857.79 105.34 1451.1
860.07 105.16 1448.6
851.09 103.61 1427.3
855.87 103.74 1429.1
859.62 103.75 1429.2
854.60 102.70 1414.7
853.66 102.15 1407.1
869.83 103.64 1427.7
882.95 104.76 1443.1
883.06 104.33 1437.2
889.95 104.70 1442.3
890.03 104.27 1436.4
887.45 103.54 1426.3
904.39 105.07 1447.5
906.56 104.89 1444.9
894.35 103.05 1419.6
899.12 103.18 1421.3
909.24 103.91 1431.5
914.03 104.04 1433.2
917.21 103.98 1432.3
927.94 104.77 1443.2
936.54 105.31 1450.8
932.14 104.40 1438.2
935.85 104.40 1438.1
940.66 104.52 1439.8
919.18 101.73 1401.4
900.86 99.31 1368.0
920.95 101.12 1393.0
941.13 102.94 1418.0
928.74 101.19 1393.9
917.92 99.62 1372.3
909.25 98.30 1354.1
897.16 96.62 1331.0
893.94 95.90 1321.1
914.80 97.76 1346.8
953.74 101.54 1398.7
986.66 104.65 1441.5
982.99 103.86 1430.8
945.27 99.50 1370.7
927.79 97.30 1340.3
926.72 96.82 1333.8
941.05 97.95 1349.3
964.01 99.97 1377.2
961.24 99.32 1368.1
961.89 99.02 1364.0
979.82 100.49 1384.4
984.52 100.61 1385.9
980.54 99.84 1375.3
995.10 100.95 1390.7
1019.03 103.01 1419.0
1024.96 103.23 1422.1
1018.02 102.17 1407.4
1026.28 102.63 1413.8
1042.79 103.91 1431.4
1057.59 105.01 1446.5
1067.12 105.58 1454.4
1048.85 103.41 1424.5
1042.35 102.41 1410.7
1077.42 105.48 1453.1
1111.43 108.43 1493.7
902.95 151.43 2163.2
889.56 148.26 2118.0
869.36 144.00 2057.2
852.80 140.40 2005.7
835.61 136.74 1953.4
817.80 133.02 1900.2
829.49 134.11 1915.8
844.03 135.65 1937.8
840.64 134.30 1918.6
830.72 131.94 1884.8
825.91 130.41 1863.0
827.51 129.90 1855.7
835.60 130.41 1863.0
857.27 133.02 1900.3
869.61 134.17 1916.7
863.37 132.45 1892.1
847.03 129.21 1845.8
833.00 126.35 1805.1
833.07 125.66 1795.1
822.13 123.32 1761.7
813.16 121.30 1732.9
808.32 119.92 1713.1
801.26 118.22 1688.8
810.41 118.92 1698.8
804.07 117.35 1676.4
778.56 113.02 1614.5
783.70 113.15 1616.5
817.70 117.43 1677.6
820.77 117.25 1675.0
798.69 113.50 1621.4
790.55 111.75 1596.5
800.55 112.58 1608.2
810.14 113.34 1619.1
807.22 112.34 1604.9
789.82 109.36 1562.3
774.96 106.75 1525.1
791.72 108.51 1550.1
820.89 111.94 1599.1
853.00 115.73 1653.3
877.05 118.40 1691.5
868.05 116.60 1665.8
851.07 113.76 1625.1
839.04 111.60 1594.2
819.88 108.51 1550.2
815.05 107.35 1533.5
835.08 109.45 1563.6
845.78 110.32 1576.0
828.11 107.49 1535.6
806.94 104.25 1489.2
810.88 104.26 1489.4
837.33 107.15 1530.7
858.65 109.36 1562.2
870.44 110.34 1576.3
862.43 108.81 1554.5
836.36 105.03 1500.4
819.33 102.42 1463.1
827.11 102.91 1470.2
843.26 104.44 1492.0
845.70 104.26 1489.5
830.81 101.96 1456.6
821.26 100.33 1433.4
834.51 101.49 1449.9
845.33 102.35 1462.1
839.14 101.15 1445.0
846.47 101.58 1451.1
856.84 102.37 1462.4
852.58 101.41 1448.7
873.65 103.46 1478.0
886.17 104.48 1492.6
860.40 101.00 1442.9
847.78 99.09 1415.6
845.84 98.44 1406.3
834.07 96.65 1380.7
841.87 97.14 1387.7
867.87 99.71 1424.5
875.25 100.13 1430.5
869.59 99.07 1415.2
873.82 99.13 1416.2
871.75 98.48 1406.9
858.56 96.59 1379.8
865.37 96.95 1385.0
895.01 99.86 1426.5
910.43 101.16 1445.1
909.38 100.63 1437.5
912.57 100.57 1436.7
916.84 100.63 1437.5
919.49 100.51 1435.9
922.12 100.39 1434.2
923.13 100.10 1430.0
924.66 99.86 1426.6
934.89 100.57 1436.6
935.86 100.27 1432.4
911.64 97.29 1389.8
894.94 95.13 1359.0
917.77 97.18 1388.2
942.90 99.45 1420.7
934.94 98.22 1403.2
923.59 96.65 1380.8
913.81 95.26 1360.9
908.99 94.40 1348.5
912.51 94.40 1348.5
916.59 94.46 1349.4
939.80 96.48 1378.3
949.57 97.11 1387.4
921.49 93.89 1341.2
911.95 92.57 1322.4
919.95 93.03 1329.0
928.55 93.55 1336.4
953.73 95.73 1367.5
980.16 98.02 1400.2
980.30 97.67 1395.3
978.69 97.15 1387.8
994.36 98.34 1404.9
994.47 98.00 1399.9
985.87 96.79 1382.8
1005.10 98.32 1404.6
1034.88 100.87 1441.0
1056.02 102.56 1465.2
1064.96 103.06 1472.3
1048.69 101.12 1444.6
1037.04 99.64 1423.5
1054.18 100.93 1441.9
1065.47 101.65 1452.2
1095.74 104.17 1488.2
1145.71 108.54 1550.6
1175.94 110.63 1580.4
890.86 142.10 2108.1
888.47 140.85 2089.6
866.75 136.58 2026.2
845.15 132.37 1963.8
842.30 131.14 1945.4
844.15 130.64 1938.1
834.76 128.42 1905.2
818.77 125.22 1857.7
819.97 124.67 1849.6
828.44 125.23 1857.8
832.05 125.05 1855.1
848.77 126.83 1881.5
861.90 128.05 1899.7
856.04 126.46 1876.1
852.15 125.17 1857.0
850.27 124.20 1842.5
839.92 122.00 1809.9
819.72 118.40 1756.5
812.43 116.70 1731.3
808.86 115.55 1714.2
804.37 114.28 1695.4
815.69 115.26 1709.9
822.32 115.57 1714.5
809.89 113.21 1679.5
804.71 111.88 1659.8
828.31 114.55 1699.4
835.82 114.98 1705.8
817.77 111.91 1660.1
819.90 111.61 1655.7
840.25 113.78 1688.0
827.23 111.44 1653.2
801.50 107.42 1593.6
800.29 106.71 1583.0
803.56 106.59 1581.3
810.45 106.96 1586.8
829.66 108.95 1616.2
840.76 109.85 1629.6
845.01 109.85 1629.7
841.88 108.90 1615.6
831.74 107.06 1588.2
835.90 107.06 1588.3
833.52 106.23 1576.0
829.69 105.23 1561.1
849.77 107.25 1591.1
866.67 108.86 1614.9
854.75 106.84 1585.1
829.40 103.18 1530.7
830.08 102.77 1524.6
850.85 104.84 1555.4
866.94 106.32 1577.3
870.08 106.21 1575.6
854.32 103.80 1539.8
834.04 100.86 1496.3
823.83 99.16 1471.1
819.88 98.23 1457.3
825.69 98.48 1460.9
834.97 99.13 1470.6
826.47 97.67 1449.0
808.96 95.17 1411.9
814.70 95.42 1415.5
829.45 96.71 1434.7
827.72 96.07 1425.3
829.98 95.91 1422.8
834.75 96.03 1424.7
834.46 95.58 1417.9
861.07 98.19 1456.7
889.35 100.97 1498.0
877.90 99.24 1472.3
867.89 97.68 1449.2
866.54 97.11 1440.7
857.41 95.68 1419.4
868.39 96.49 1431.4
875.25 96.84 1436.6
863.38 95.12 1411.1
866.56 95.07 1410.3
881.27 96.27 1428.2
878.69 95.59 1418.1
865.53 93.77 1391.0
855.96 92.34 1369.9
869.65 93.43 1386.1
897.24 96.00 1424.2
907.89 96.74 1435.2
912.69 96.86 1436.9
918.03 97.03 1439.4
899.14 94.65 1404.1
882.28 92.50 1372.2
892.38 93.18 1382.3
903.05 93.92 1393.3
906.14 93.86 1392.5
901.03 92.96 1379.1
895.32 92.01 1365.0
896.70 91.79 1361.7
900.81 91.85 1362.6
907.69 92.19 1367.6
909.59 92.02 1365.1
907.60 91.46 1356.9
916.71 92.02 1365.2
929.19 92.92 1378.5
931.09 92.75 1376.0
932.41 92.53 1372.7
939.35 92.86 1377.6
931.07 91.70 1360.3
922.16 90.48 1342.2
931.90 91.09 1351.3
938.82 91.42 1356.2
945.18 91.70 1360.3
961.84 92.97 1379.2
977.98 94.18 1397.1
991.32 95.11 1410.9
1003.55 95.93 1423.1
1014.67 96.63 1433.6
1009.62 95.80 1421.3
994.10 93.99 1394.3
1008.70 95.02 1409.7
1044.32 98.02 1454.2
1070.74 100.14 1485.6
1077.96 100.45 1490.3
1058.20 98.26 1457.7
1048.92 97.05 1439.8
1071.39 98.78 1465.4
1092.18 100.34 1488.6
1134.35 103.85 1540.6
896.43 137.49 2121.3
883.13 134.62 2077.0
853.13 129.26 1994.3
832.25 125.34 1933.8
830.92 124.39 1919.1
848.26 126.23 1947.5
853.30 126.23 1947.5
838.61 123.33 1902.7
840.72 122.91 1896.4
841.98 122.38 1888.2
839.11 121.26 1870.9
859.98 123.56 1906.4
876.46 125.21 1931.8
842.48 119.67 1846.3
810.63 114.50 1766.5
824.03 115.74 1785.6
829.95 115.91 1788.4
837.14 116.27 1793.9
853.68 117.91 1819.2
834.11 114.58 1767.7
815.18 111.36 1718.2
822.25 111.72 1723.7
825.45 111.55 1721.0
826.48 111.09 1713.9
834.87 111.61 1722.0
848.11 112.78 1740.0
846.48 111.97 1727.5
826.71 108.78 1678.3
827.55 108.32 1671.2
834.58 108.67 1676.6
809.03 104.80 1616.9
783.67 100.99 1558.1
783.74 100.48 1550.2
804.57 102.62 1583.3
830.54 105.40 1626.1
827.50 104.48 1612.0
817.07 102.65 1583.7
832.26 104.03 1605.1
840.15 104.50 1612.2
828.15 102.49 1581.3
832.76 102.56 1582.3
837.37 102.62 1583.3
840.11 102.45 1580.7
838.60 101.77 1570.2
834.68 100.81 1555.3
846.34 101.72 1569.4
844.26 100.99 1558.1
826.85 98.43 1518.7
830.36 98.38 1517.9
843.97 99.52 1535.5
845.09 99.19 1530.4
832.15 97.21 1499.9
816.16 94.90 1464.2
820.03 94.91 1464.3
830.26 95.65 1475.8
838.57 96.17 1483.7
851.34 97.19 1499.4
861.21 97.86 1509.9
861.18 97.42 1503.0
833.23 93.83 1447.7
814.56 91.32 1408.9
824.82 92.06 1420.3
839.65 93.29 1439.4
840.41 92.97 1434.3
836.59 92.14 1421.5
855.08 93.76 1446.6
873.66 95.38 1471.5
871.87 94.77 1462.1
871.08 94.27 1454.5
866.65 93.39 1440.9
854.93 91.73 1415.3
867.98 92.73 1430.7
877.44 93.34 1440.2
864.53 91.58 1413.0
866.15 91.37 1409.6
896.59 94.18 1453.1
908.78 95.06 1466.7
881.46 91.82 1416.6
859.77 89.19 1376.0
869.23 89.80 1385.4
891.50 91.72 1415.1
921.35 94.40 1456.5
947.06 96.64 1491.0
937.47 95.27 1469.9
904.64 91.56 1412.7
875.37 88.24 1361.5
872.45 87.60 1351.5
899.90 89.99 1388.4
917.69 91.40 1410.2
920.25 91.30 1408.6
922.26 91.13 1406.1
911.63 89.73 1384.4
903.12 88.54 1366.1
918.84 89.73 1384.4
929.63 90.43 1395.2
933.25 90.43 1395.2
948.55 91.56 1412.6
941.58 90.54 1396.9
923.92 88.50 1365.4
942.06 89.89 1386.9
964.77 91.71 1414.9
966.15 91.49 1411.6
968.07 91.33 1409.1
975.09 91.64 1413.9
979.28 91.69 1414.7
967.51 90.25 1392.5
965.37 89.72 1384.2
984.97 91.20 1407.1
1002.92 92.52 1427.4
1011.72 92.99 1434.7
1019.40 93.35 1440.3
1036.34 94.56 1458.9
1046.39 95.13 1467.7
1032.64 93.54 1443.1
1040.36 93.90 1448.7
1070.86 96.30 1485.8
1080.42 96.81 1493.7
1081.20 96.54 1489.4
1096.08 97.52 1504.5
1125.74 99.80 1539.8
1161.72 102.26 1577.8
886.42 132.14 2123.6
861.34 127.61 2050.8
873.24 128.57 2066.4
873.09 127.77 2053.4
846.97 123.20 1979.9
830.78 120.11 1930.4
834.21 119.89 1926.7
856.35 122.34 1966.1
877.46 124.61 2002.7
876.58 123.75 1988.9
855.81 120.11 1930.4
834.77 116.48 1872.0
824.11 114.33 1837.4
836.28 115.35 1853.8
868.32 119.08 1913.9
851.30 116.09 1865.7
808.25 109.59 1761.3
809.09 109.09 1753.2
833.42 111.74 1795.9
857.94 114.39 1838.4
850.82 112.82 1813.1
811.22 106.97 1719.2
805.01 105.58 1696.8
823.65 107.43 1726.6
824.70 106.99 1719.5
822.68 106.15 1706.0
807.54 103.64 1665.7
797.04 101.75 1635.3
810.56 102.93 1654.2
806.08 101.82 1636.4
797.97 100.27 1611.5
795.98 99.50 1599.1
795.73 98.95 1590.3
796.33 98.52 1583.3
805.01 99.08 1592.3
835.44 102.30 1644.1
849.72 103.52 1663.7
834.90 101.20 1626.4
826.33 99.66 1601.6
844.32 101.32 1628.3
863.33 103.08 1656.7
862.53 102.48 1647.0
855.19 101.11 1624.9
848.21 99.79 1603.8
843.49 98.75 1587.1
833.53 97.11 1560.7
817.79 94.82 1523.8
818.96 94.50 1518.7
835.80 95.98 1542.5
836.50 95.60 1536.4
821.84 93.48 1502.4
819.55 92.78 1491.1
828.31 93.33 1500.0
825.47 92.58 1487.8
818.70 91.39 1468.8
831.36 92.37 1484.6
845.54 93.52 1502.9
859.31 94.60 1520.4
862.79 94.55 1519.6
863.79 94.23 1514.4
875.19 95.04 1527.5
858.24 92.78 1491.2
831.16 89.45 1437.6
834.45 89.41 1436.9
848.30 90.49 1454.2
847.58 90.01 1446.6
828.59 87.60 1407.9
832.32 87.61 1408.1
858.47 89.97 1446.0
862.77 90.03 1446.9
858.87 89.23 1434.1
851.82 88.12 1416.2
856.58 88.23 1418.0
886.73 90.95 1461.6
894.17 91.32 1467.6
878.18 89.31 1435.3
870.96 88.20 1417.5
890.93 89.84 1443.9
913.62 91.74 1474.5
895.81 89.58 1439.7
880.51 87.69 1409.2
895.34 88.79 1427.0
903.85 89.27 1434.7
918.25 90.32 1451.6
935.93 91.68 1473.5
918.25 89.58 1439.8
911.20 88.54 1422.9
906.26 87.70 1409.5
899.09 86.66 1392.7
921.73 88.49 1422.1
939.04 89.79 1443.0
940.02 89.53 1438.8
942.09 89.37 1436.3
932.06 88.07 1415.4
907.08 85.37 1372.1
905.69 84.91 1364.6
923.09 86.20 1385.4
934.46 86.93 1397.0
940.86 87.18 1401.2
924.94 85.38 1372.2
918.99 84.50 1358.1
950.58 87.08 1399.4
972.76 88.77 1426.6
972.46 88.41 1420.8
966.48 87.53 1406.7
966.69 87.22 1401.8
983.36 88.39 1420.6
983.00 88.03 1414.8
974.62 86.96 1397.5
989.66 87.97 1413.8
998.43 88.42 1421.1
997.44 88.01 1414.4
1021.82 89.83 1443.7
1059.01 92.76 1490.8
1070.86 93.46 1502.0
1060.07 92.18 1481.5
1052.12 91.16 1465.0
1067.47 92.16 1481.1
1086.39 93.45 1501.9
1096.57 93.99 1510.6
1109.72 94.78 1523.3
1139.41 96.97 1558.5
859.52 122.03 2046.5
866.36 122.25 2050.1
880.63 123.50 2071.2
867.90 120.98 2028.8
832.87 115.40 1935.2
817.26 112.56 1887.6
843.71 115.51 1937.1
867.56 118.07 1980.1
866.22 117.19 1965.4
844.59 113.60 1905.1
826.75 110.55 1854.0
818.91 108.87 1825.8
817.10 108.01 1811.3
835.43 109.80 1841.4
846.85 110.67 1855.9
833.34 108.29 1816.0
827.18 106.88 1792.4
843.62 108.40 1817.9
853.83 109.10 1829.6
834.81 106.08 1779.0
811.32 102.53 1719.4
819.67 103.02 1727.6
836.22 104.53 1752.9
834.74 103.78 1740.4
823.66 101.85 1708.0
799.80 98.37 1649.7
775.70 94.90 1591.5
775.08 94.32 1581.8
789.41 95.56 1602.6
799.84 96.32 1615.2
815.66 97.71 1638.6
833.81 99.37 1666.4
818.42 97.03 1627.2
811.42 95.71 1605.0
840.52 98.63 1654.1
854.37 99.75 1672.8
850.96 98.85 1657.7
854.36 98.75 1656.0
854.99 98.32 1648.9
856.05 97.96 1642.7
851.52 96.96 1626.0
839.95 95.17 1596.0
851.59 96.01 1610.1
864.69 97.01 1626.9
847.74 94.65 1587.3
824.50 91.61 1536.3
816.69 90.31 1514.5
825.91 90.89 1524.2
838.04 91.78 1539.3
834.40 90.95 1525.3
833.60 90.44 1516.7
845.79 91.33 1531.6
839.14 90.19 1512.5
828.03 88.58 1485.5
829.99 88.38 1482.1
833.89 88.39 1482.2
842.71 88.91 1491.0
841.20 88.34 1481.6
847.56 88.61 1486.0
864.86 90.01 1509.5
861.83 89.29 1497.4
848.25 87.49 1467.2
847.59 87.03 1459.5
857.46 87.65 1469.9
868.88 88.43 1482.9
861.61 87.30 1464.0
853.76 86.12 1444.3
869.28 87.31 1464.2
879.24 87.92 1474.5
880.52 87.67 1470.3
885.90 87.83 1472.9
903.16 89.15 1495.1
901.85 88.64 1486.6
877.13 85.85 1439.7
874.63 85.24 1429.5
881.51 85.55 1434.6
881.59 85.20 1428.7
883.22 85.00 1425.4
894.85 85.76 1438.2
908.12 86.67 1453.4
903.93 85.91 1440.7
892.77 84.50 1417.1
901.80 85.01 1425.6
913.54 85.76 1438.2
902.24 84.36 1414.7
901.07 83.91 1407.1
918.24 85.16 1428.1
932.23 86.11 1444.1
933.24 85.86 1439.9
930.97 85.31 1430.6
927.02 84.61 1418.9
924.12 84.01 1408.9
930.51 84.26 1413.0
922.60 83.22 1395.5
913.52 82.07 1376.4
924.85 82.77 1388.1
932.34 83.12 1393.9
934.84 83.02 1392.2
928.39 82.13 1377.3
931.96 82.13 1377.3
931.05 81.73 1370.7
919.41 80.40 1348.4
934.77 81.44 1365.7
945.66 82.08 1376.4
941.85 81.44 1365.7
953.34 82.12 1377.2
970.00 83.25 1396.1
979.87 83.78 1405.0
999.50 85.14 1427.9
1012.32 85.92 1440.8
1010.21 85.42 1432.5
1036.35 87.31 1464.2
1075.32 90.26 1513.7
1086.04 90.83 1523.3
1073.55 89.46 1500.3
1066.21 88.53 1484.7
1102.63 91.22 1529.8
1147.97 94.64 1587.1
1145.97 94.13 1578.6
1145.12 93.73 1571.9
1153.09 94.05 1577.2
880.07 118.78 2082.6
867.46 116.37 2040.2
870.36 116.05 2034.6
849.55 112.59 1974.0
815.78 107.47 1884.2
823.87 107.89 1891.5
856.45 111.49 1954.7
863.11 111.70 1958.3
846.31 108.88 1909.0
833.36 106.59 1868.8
832.09 105.81 1855.2
836.91 105.82 1855.2
842.14 105.87 1856.1
840.74 105.09 1842.5
833.44 103.59 1816.2
832.72 102.92 1804.5
839.94 103.23 1809.9
842.95 103.03 1806.3
833.22 101.28 1775.6
817.39 98.80 1732.3
814.63 97.93 1717.0
820.42 98.09 1719.8
832.25 98.97 1735.2
834.17 98.67 1729.8
812.53 95.59 1676.0
790.67 92.53 1622.2
790.99 92.07 1614.3
805.84 93.31 1635.9
812.35 93.57 1640.5
824.66 94.49 1656.7
845.98 96.43 1690.7
833.32 94.50 1656.8
803.41 90.64 1589.2
810.30 90.95 1594.6
832.67 92.99 1630.3
838.75 93.19 1633.9
857.21 94.77 1661.5
873.48 96.08 1684.6
861.69 94.31 1653.6
843.75 91.89 1611.1
842.37 91.29 1600.6
863.36 93.11 1632.4
872.29 93.61 1641.2
850.67 90.85 1592.8
843.49 89.65 1571.7
851.86 90.10 1579.7
847.42 89.20 1563.9
845.30 88.56 1552.6
846.48 88.26 1547.4
851.01 88.31 1548.3
858.44 88.66 1554.5
845.53 86.92 1524.0
832.99 85.24 1494.4
833.02 84.84 1487.5
833.50 84.50 1481.5
838.38 84.61 1483.4
840.80 84.46 1480.9
851.12 85.11 1492.2
866.95 86.30 1513.1
862.92 85.52 1499.3
847.85 83.64 1466.5
846.18 83.11 1457.1
869.63 85.03 1490.8
893.22 86.95 1524.5
899.20 87.15 1527.9
904.17 87.24 1529.6
892.32 85.72 1503.0
874.74 83.67 1466.9
878.05 83.62 1466.1
884.97 83.92 1471.3
889.83 84.02 1473.0
874.49 82.22 1441.5
870.47 81.49 1428.7
889.85 82.95 1454.4
888.41 82.47 1445.9
880.11 81.35 1426.3
877.00 80.73 1415.4
882.81 80.92 1418.8
914.04 83.44 1462.9
928.45 84.40 1479.8
912.56 82.62 1448.5
918.45 82.81 1451.9
938.28 84.25 1477.2
935.10 83.63 1466.2
926.48 82.52 1446.8
936.71 83.09 1456.9
944.79 83.48 1463.5
940.41 82.76 1450.9
937.06 82.13 1440.0
931.49 81.32 1425.7
923.12 80.27 1407.4
926.22 80.22 1406.5
935.37 80.70 1414.8
944.55 81.17 1423.1
946.00 80.98 1419.8
944.10 80.50 1411.4
949.41 80.65 1413.9
944.68 79.93 1401.4
937.10 78.99 1384.9
924.97 77.67 1361.7
916.13 76.63 1343.6
933.74 77.81 1364.2
953.11 79.13 1387.3
959.52 79.36 1391.4
954.01 78.61 1378.2
952.43 78.18 1370.8
971.40 79.45 1392.9
1002.47 81.68 1432.1
1019.89 82.80 1451.6
1021.83 82.65 1449.0
1038.76 83.71 1467.6
1069.06 85.84 1504.9
1090.21 87.22 1529.1
1088.19 86.74 1520.8
1088.46 86.45 1515.7
1139.53 90.18 1581.1
870.07 112.10 2058.9
858.19 109.89 2018.4
863.79 109.94 2019.3
869.40 109.98 2020.1
860.72 108.23 1988.0
836.74 104.59 1921.1
838.11 104.14 1912.9
854.76 105.59 1939.4
846.82 104.00 1910.1
836.31 102.11 1875.4
837.50 101.66 1867.3
835.37 100.82 1851.8
