ply
format ascii 1.0
element vertex 2436
property float x
property float y
property float z
end_header
439.49 47.09 1210.8
456.67 48.58 1249.3
466.09 49.23 1266.0
463.76 48.65 1250.9
465.21 48.46 1246.1
468.05 48.42 1245.0
460.26 47.29 1215.9
454.12 46.34 1191.6
462.18 46.84 1204.5
469.94 47.31 1216.5
473.41 47.34 1217.3
479.79 47.66 1225.6
481.44 47.51 1221.7
477.55 46.82 1203.9
483.58 47.10 1211.2
493.36 47.74 1227.7
499.85 48.06 1235.9
502.22 47.98 1233.8
511.78 48.59 1249.4
527.12 49.73 1278.7
534.54 50.11 1288.6
537.39 50.07 1287.4
518.56 48.01 1234.7
497.16 45.75 1176.4
528.29 48.32 1242.5
567.17 51.56 1325.9
563.36 50.91 1309.0
509.84 45.79 1177.6
475.29 42.44 1091.2
498.92 44.28 1138.7
530.01 46.77 1202.5
506.29 44.41 1142.0
496.55 43.30 1113.5
520.23 45.11 1159.9
523.55 45.13 1160.6
515.31 44.17 1135.8
499.08 42.54 1093.8
458.08 38.82 998.2
439.69 37.05 952.8
456.03 38.21 982.7
456.86 38.07 979.0
461.06 38.21 982.5
477.64 39.37 1012.3
470.79 38.59 992.3
477.19 38.90 1000.3
483.63 39.21 1008.3
471.42 38.02 977.6
472.17 37.87 973.9
479.03 38.22 982.8
482.84 38.32 985.4
479.60 37.86 973.6
470.99 36.99 951.1
475.19 37.12 954.6
479.41 37.26 958.1
494.41 38.23 983.0
514.48 39.58 1017.7
490.77 37.56 965.8
457.76 34.85 896.3
468.73 35.51 913.1
489.84 36.92 949.4
477.98 35.85 921.8
487.26 36.36 935.0
510.49 37.91 974.8
511.54 37.80 972.0
513.98 37.79 971.8
511.72 37.44 962.8
522.61 38.05 978.5
540.18 39.14 1006.5
518.01 37.36 960.6
520.89 37.38 961.3
593.54 42.40 1090.2
628.81 44.70 1149.5
634.95 44.93 1155.2
646.91 45.56 1171.5
633.24 44.39 1141.3
619.93 43.25 1112.2
614.31 42.66 1097.0
649.79 44.92 1155.0
635.35 43.72 1124.1
597.09 40.90 1051.6
574.88 39.20 1007.9
583.81 39.63 1018.9
621.19 41.97 1079.3
619.79 41.69 1072.0
664.53 44.50 1144.3
385.49 53.97 1486.9
379.73 52.64 1450.2
379.16 52.04 1433.8
372.83 50.68 1396.2
372.31 50.12 1380.8
375.90 50.12 1380.9
375.53 49.60 1366.5
369.47 48.34 1331.9
362.16 46.95 1293.4
359.02 46.11 1270.4
362.34 46.12 1270.5
369.53 46.61 1284.1
371.76 46.47 1280.3
368.64 45.67 1258.3
365.98 44.94 1238.3
370.07 45.05 1241.2
376.76 45.47 1252.8
380.03 45.47 1252.8
378.61 44.92 1237.6
378.01 44.47 1225.2
382.10 44.58 1228.2
388.29 44.93 1237.7
393.62 45.17 1244.5
393.51 44.79 1234.0
389.38 43.96 1211.2
396.53 44.41 1223.6
409.02 45.45 1252.1
413.20 45.55 1254.9
410.47 44.89 1236.9
403.84 43.83 1207.5
408.25 43.97 1211.3
417.18 44.58 1228.3
418.41 44.38 1222.6
426.46 44.89 1236.8
438.50 45.81 1262.2
442.41 45.88 1264.0
436.69 44.95 1238.5
434.19 44.37 1222.4
439.35 44.57 1228.0
436.75 43.99 1212.0
438.85 43.88 1209.1
453.62 45.04 1240.9
460.26 45.38 1250.2
461.02 45.14 1243.5
464.55 45.17 1244.3
464.22 44.82 1234.9
454.64 43.60 1201.1
446.32 42.51 1171.1
452.19 42.78 1178.5
464.22 43.62 1201.7
470.19 43.88 1209.1
479.10 44.42 1223.8
482.95 44.48 1225.5
480.53 43.97 1211.4
489.17 44.47 1225.2
492.66 44.50 1226.0
488.27 43.82 1207.3
492.46 43.91 1209.9
504.24 44.68 1231.0
519.54 45.75 1260.3
525.78 46.01 1267.5
512.03 44.52 1226.7
474.09 40.97 1128.8
468.80 40.26 1109.3
518.55 44.27 1219.6
545.60 46.29 1275.4
529.03 44.62 1229.2
527.35 44.21 1218.0
547.17 45.60 1256.3
541.08 44.82 1234.9
549.00 45.21 1245.6
526.59 43.11 1187.8
509.21 41.45 1141.9
532.13 43.06 1186.4
534.69 43.02 1185.3
524.44 41.95 1155.9
504.93 40.16 1106.6
489.79 38.74 1067.3
491.24 38.64 1064.5
485.10 37.94 1045.3
464.92 36.16 996.3
456.43 35.30 972.7
462.33 35.56 979.8
468.26 35.82 987.0
488.42 37.16 1023.9
493.60 37.35 1029.1
481.88 36.27 999.3
469.15 35.12 967.7
461.55 34.37 946.9
462.65 34.27 944.2
454.46 33.49 922.6
466.14 34.17 941.4
490.82 35.79 986.0
477.21 34.62 953.7
473.34 34.16 941.1
485.21 34.84 959.8
458.66 32.76 902.6
437.34 31.08 856.3
457.35 32.34 890.9
495.84 34.88 961.1
504.25 35.30 972.5
477.59 33.27 916.5
464.16 32.17 886.3
482.25 33.26 916.3
497.66 34.15 941.0
494.87 33.80 931.1
511.82 34.78 958.3
529.35 35.80 986.4
502.39 33.81 931.6
483.79 32.41 892.8
522.85 34.86 960.3
571.30 37.91 1044.3
594.08 39.23 1080.9
640.68 42.11 1160.2
664.80 43.49 1198.2
632.14 41.16 1134.1
602.63 39.06 1076.1
652.78 42.12 1160.3
652.61 41.91 1154.7
612.92 39.18 1079.5
592.75 37.72 1039.2
566.96 35.92 989.5
573.37 36.16 996.2
604.33 37.94 1045.3
683.15 42.70 1176.3
390.54 50.77 1506.4
390.15 50.22 1489.9
392.48 50.02 1484.2
388.60 49.05 1455.2
377.54 47.19 1400.2
372.00 46.06 1366.5
375.82 46.09 1367.6
373.24 45.35 1345.5
366.23 44.08 1308.0
363.40 43.34 1285.9
364.56 43.08 1278.3
369.01 43.22 1282.3
371.24 43.09 1278.5
367.27 42.25 1253.6
367.14 41.87 1242.2
373.81 42.26 1253.8
375.07 42.03 1247.1
372.81 41.42 1229.0
376.01 41.43 1229.1
379.81 41.49 1231.1
379.75 41.14 1220.6
381.74 41.01 1216.9
391.24 41.69 1236.9
395.06 41.75 1238.9
389.41 40.82 1211.3
395.02 41.08 1218.9
405.64 41.85 1241.8
408.86 41.85 1241.8
408.61 41.50 1231.3
403.88 40.70 1207.6
404.14 40.41 1199.1
409.17 40.61 1204.8
411.00 40.48 1201.0
419.97 41.05 1218.0
432.63 41.97 1245.3
437.49 42.13 1250.0
439.05 41.97 1245.2
443.25 42.06 1248.0
445.45 41.96 1245.0
440.18 41.17 1221.5
435.81 40.47 1200.7
443.71 40.91 1213.8
455.46 41.70 1237.2
460.37 41.85 1241.7
462.84 41.78 1239.8
461.09 41.34 1226.5
456.80 40.67 1206.8
454.19 40.17 1191.8
457.60 40.19 1192.6
466.42 40.69 1207.4
474.57 41.13 1220.3
484.24 41.69 1236.9
488.48 41.78 1239.6
487.57 41.43 1229.2
492.92 41.61 1234.6
491.20 41.20 1222.4
481.94 40.16 1191.6
479.69 39.72 1178.5
489.51 40.28 1195.0
502.44 41.08 1218.9
508.97 41.35 1227.0
502.06 40.54 1202.8
490.39 39.35 1167.6
520.97 41.55 1232.8
544.80 43.19 1281.3
535.81 42.22 1252.6
526.70 41.25 1223.8
530.57 41.30 1225.4
561.18 43.42 1288.4
570.80 43.91 1302.8
592.98 45.35 1345.4
584.15 44.41 1317.6
519.84 39.29 1165.7
496.58 37.32 1107.2
491.57 36.73 1089.7
473.68 35.19 1044.0
480.49 35.49 1053.0
489.41 35.95 1066.5
473.27 34.56 1025.5
451.89 32.82 973.8
460.73 33.27 987.3
479.39 34.43 1021.6
476.44 34.03 1009.7
479.01 34.03 1009.6
488.89 34.54 1024.8
483.70 33.99 1008.5
488.43 34.14 1012.9
490.99 34.13 1012.7
462.90 32.01 949.7
445.97 30.68 910.1
429.32 29.37 871.6
430.69 29.31 869.8
481.94 32.63 968.2
500.50 33.71 1000.3
472.48 31.66 939.4
459.54 30.64 909.0
472.73 31.35 930.3
491.02 32.40 961.4
475.64 31.23 926.6
471.13 30.78 913.2
503.36 32.72 970.8
503.96 32.59 967.1
486.45 31.31 928.9
502.30 32.17 954.4
504.24 32.13 953.4
490.22 31.09 922.4
499.14 31.50 934.6
508.11 31.91 946.8
512.39 32.02 950.2
523.82 32.58 966.7
533.40 33.02 979.7
543.99 33.52 994.4
542.12 33.24 986.3
557.61 34.03 1009.8
571.26 34.70 1029.6
539.71 32.63 968.3
534.30 32.16 954.1
568.53 34.06 1010.6
619.21 36.93 1095.6
643.57 38.20 1133.5
642.32 37.96 1126.1
630.11 37.07 1099.7
620.78 36.35 1078.6
635.89 37.07 1099.9
672.66 39.04 1158.3
383.55 46.03 1479.4
376.25 44.70 1436.9
373.35 43.92 1411.8
377.54 43.98 1413.8
373.67 43.12 1385.9
371.76 42.49 1365.7
378.50 42.85 1377.3
379.15 42.52 1366.7
374.62 41.62 1337.9
372.12 40.97 1316.8
373.36 40.73 1309.2
375.12 40.55 1303.5
374.33 40.11 1289.2
371.23 39.42 1267.2
372.55 39.22 1260.5
377.84 39.43 1267.3
377.97 39.10 1256.8
374.87 38.45 1235.8
377.51 38.39 1234.0
382.49 38.57 1239.8
383.34 38.33 1232.2
385.95 38.28 1230.3
396.39 38.99 1253.2
404.50 39.46 1268.5
401.98 38.90 1250.4
395.98 38.01 1221.9
395.12 37.63 1209.5
406.70 38.43 1235.2
414.62 38.87 1249.4
410.56 38.19 1227.6
411.19 37.96 1220.0
411.45 37.69 1211.5
408.77 37.16 1194.4
414.47 37.40 1202.0
423.48 37.92 1219.0
430.26 38.25 1229.3
435.09 38.39 1234.0
436.60 38.24 1229.2
435.72 37.89 1217.8
437.16 37.74 1213.1
439.26 37.65 1210.2
441.00 37.53 1206.4
446.52 37.73 1212.9
454.49 38.14 1225.9
460.08 38.34 1232.4
459.72 38.05 1222.9
457.54 37.61 1208.8
460.27 37.57 1207.7
468.74 38.01 1221.6
468.97 37.77 1214.0
467.00 37.36 1200.8
480.27 38.17 1226.8
489.62 38.65 1242.4
487.98 38.27 1230.2
492.96 38.41 1234.7
499.81 38.70 1243.8
501.09 38.55 1238.9
492.16 37.62 1209.1
494.09 37.53 1206.2
504.00 38.04 1222.6
505.94 37.95 1219.7
525.96 39.20 1260.1
558.55 41.37 1329.9
571.04 41.78 1343.0
564.95 41.09 1320.7
559.14 40.42 1299.2
517.90 37.21 1196.2
491.37 35.10 1128.1
499.04 35.43 1139.0
529.33 37.36 1201.0
562.72 39.49 1269.3
546.74 38.14 1226.1
501.53 34.79 1118.2
478.86 33.03 1061.5
449.76 30.84 991.3
443.17 30.22 971.2
458.60 31.09 999.4
448.59 30.24 972.1
438.46 29.39 944.8
460.34 30.69 986.4
472.20 31.31 1006.3
464.53 30.63 984.5
468.75 30.74 988.0
478.59 31.21 1003.3
480.71 31.18 1002.2
488.46 31.51 1012.9
495.82 31.82 1022.7
473.88 30.25 972.2
474.59 30.13 968.6
473.96 29.93 962.2
437.38 27.48 883.3
452.13 28.26 908.3
495.61 30.82 990.5
496.32 30.70 986.8
485.73 29.89 960.8
503.11 30.80 990.1
521.51 31.77 1021.1
500.33 30.32 974.7
481.70 29.05 933.7
498.33 29.90 961.1
518.31 30.94 994.6
518.94 30.83 990.9
532.13 31.46 1011.1
537.92 31.64 1017.1
516.52 30.24 971.9
509.06 29.65 953.2
516.66 29.95 962.7
515.74 29.75 956.4
511.47 29.37 943.9
507.15 28.98 931.5
521.48 29.66 953.3
522.42 29.57 950.5
531.07 29.92 961.7
532.98 29.89 960.6
529.04 29.53 949.1
547.03 30.39 976.8
560.23 30.98 995.8
584.82 32.19 1034.7
633.74 34.73 1116.2
669.60 36.52 1174.0
635.61 34.51 1109.3
608.36 32.88 1057.0
636.43 34.25 1100.8
683.24 36.60 1176.5
378.31 41.61 1459.2
367.16 39.99 1402.2
363.92 39.25 1376.2
368.54 39.36 1380.1
373.44 39.50 1385.0
379.67 39.77 1394.7
376.41 39.06 1369.7
367.95 37.83 1326.4
367.64 37.44 1313.0
368.34 37.17 1303.4
369.00 36.90 1293.9
369.89 36.66 1285.3
368.50 36.19 1269.1
365.63 35.59 1248.1
372.86 35.98 1261.6
384.72 36.80 1290.4
385.20 36.53 1280.8
382.73 35.98 1261.7
380.46 35.47 1243.6
380.75 35.20 1234.1
385.45 35.33 1238.9
391.67 35.61 1248.5
397.62 35.85 1257.1
400.58 35.82 1256.2
400.17 35.50 1244.8
396.01 34.85 1222.0
393.90 34.39 1205.8
403.92 34.98 1226.7
407.41 35.01 1227.7
398.86 34.01 1192.6
405.47 34.31 1203.0
411.48 34.55 1211.6
409.76 34.15 1197.4
416.45 34.44 1207.8
421.54 34.60 1213.4
424.02 34.55 1211.5
429.47 34.74 1218.0
430.94 34.60 1213.3
432.72 34.49 1209.5
436.85 34.57 1212.2
437.92 34.41 1206.5
438.97 34.25 1200.8
448.96 34.78 1219.5
461.82 35.52 1245.7
455.92 34.83 1221.2
444.97 33.76 1183.7
456.15 34.37 1205.1
474.19 35.48 1244.2
471.27 35.03 1228.2
460.00 33.96 1190.8
457.25 33.53 1175.8
469.73 34.22 1199.9
487.82 35.30 1237.9
498.33 35.83 1256.3
504.85 36.06 1264.5
514.01 36.48 1279.1
515.74 36.37 1275.2
507.65 35.57 1247.2
514.21 35.80 1255.3
526.51 36.43 1277.3
515.17 35.42 1241.9
519.07 35.46 1243.5
550.84 37.40 1311.5
562.68 37.97 1331.5
542.13 36.36 1275.1
520.95 34.73 1217.8
532.31 35.27 1236.9
516.74 34.04 1193.5
471.84 30.89 1083.3
470.18 30.60 1073.1
483.40 31.28 1096.8
491.86 31.64 1109.4
524.79 33.56 1176.9
533.06 33.89 1188.5
524.93 33.19 1163.6
502.66 31.60 1107.9
480.55 30.03 1053.2
481.97 29.95 1050.3
470.40 29.07 1019.3
461.63 28.37 994.7
465.44 28.44 997.4
459.92 27.95 980.1
453.47 27.41 961.0
457.64 27.51 964.6
447.20 26.73 937.5
431.02 25.63 898.7
471.56 27.89 977.9
515.48 30.32 1063.2
484.86 28.37 994.8
479.46 27.91 978.5
505.36 29.26 1025.9
492.41 28.36 994.4
470.42 26.95 945.0
477.30 27.20 953.9
489.16 27.74 972.6
491.62 27.73 972.4
492.27 27.63 968.8
489.71 27.34 958.8
490.31 27.24 955.2
494.10 27.31 957.7
492.84 27.11 950.5
491.09 26.88 942.4
490.68 26.72 937.0
499.11 27.05 948.3
539.82 29.11 1020.7
554.55 29.76 1043.4
526.99 28.14 986.7
510.54 27.13 951.3
509.13 26.93 944.1
504.83 26.57 931.7
487.58 25.54 895.6
486.49 25.36 889.3
524.86 27.23 954.9
583.78 30.15 1057.1
590.24 30.34 1063.9
584.56 29.91 1048.7
589.56 30.02 1052.8
590.17 29.92 1049.0
609.44 30.75 1078.3
649.57 32.63 1144.1
668.65 33.43 1172.3
622.73 31.00 1086.9
599.91 29.73 1042.3
637.97 31.47 1103.5
681.27 33.46 1173.1
388.70 39.26 1514.4
376.58 37.66 1452.5
366.17 36.25 1398.4
363.68 35.66 1375.3
367.01 35.63 1374.4
371.38 35.71 1377.4
369.19 35.16 1356.2
358.68 33.84 1305.2
355.68 33.24 1282.2
359.30 33.27 1283.2
358.04 32.85 1267.0
356.42 32.40 1249.8
366.32 33.00 1272.9
373.27 33.33 1285.5
369.59 32.71 1261.6
376.57 33.03 1274.1
385.32 33.51 1292.4
382.06 32.94 1270.4
380.14 32.49 1253.2
378.73 32.10 1238.0
377.53 31.73 1223.7
380.43 31.70 1222.8
384.81 31.80 1226.7
387.70 31.78 1225.8
396.36 32.22 1242.9
401.73 32.40 1249.6
400.04 32.00 1234.4
400.76 31.81 1226.8
403.00 31.73 1224.0
398.62 31.14 1201.2
390.96 30.31 1169.0
398.15 30.63 1181.3
418.26 31.93 1231.5
431.15 32.66 1259.9
426.91 32.10 1238.1
421.57 31.46 1213.5
426.35 31.58 1218.2
434.15 31.92 1231.3
429.96 31.38 1210.5
426.35 30.89 1191.7
433.15 31.16 1202.0
436.93 31.21 1203.8
437.97 31.06 1198.1
448.30 31.57 1217.7
462.89 32.37 1248.6
458.04 31.81 1226.9
443.95 30.62 1180.9
453.00 31.03 1196.8
469.95 31.97 1233.1
466.65 31.53 1216.2
463.63 31.12 1200.2
472.13 31.48 1214.0
473.40 31.35 1209.3
478.32 31.47 1213.8
487.67 31.87 1229.4
494.13 32.09 1237.6
503.60 32.49 1253.2
504.52 32.34 1247.4
503.53 32.07 1237.1
521.06 32.98 1272.0
540.26 33.98 1310.6
536.65 33.54 1293.7
527.96 32.79 1264.8
540.81 33.38 1287.6
540.53 33.16 1279.1
506.96 30.91 1192.3
495.81 30.05 1159.0
521.27 31.40 1211.2
530.67 31.78 1225.7
511.79 30.46 1175.0
487.86 28.87 1113.5
476.98 28.06 1082.2
487.02 28.48 1098.5
512.61 29.80 1149.5
523.68 30.27 1167.6
519.21 29.84 1151.0
505.16 28.87 1113.4
493.86 28.06 1082.3
501.60 28.34 1093.1
498.49 28.01 1080.2
476.81 26.64 1027.4
468.43 26.02 1003.8
464.19 25.65 989.2
459.46 25.25 973.7
458.53 25.06 966.4
442.92 24.07 928.5
427.15 23.09 890.6
466.37 25.07 967.1
511.58 27.36 1055.2
486.64 25.88 998.4
468.49 24.79 956.1
479.76 25.25 974.0
492.44 25.78 994.5
495.84 25.83 996.1
481.36 24.94 962.0
469.42 24.20 933.3
477.22 24.47 943.9
483.69 24.68 951.9
482.92 24.51 945.5
485.32 24.51 945.4
475.80 23.91 922.2
458.81 22.94 884.9
470.32 23.40 902.5
482.36 23.88 921.1
492.62 24.27 936.0
532.37 26.10 1006.6
572.41 27.92 1077.0
566.58 27.50 1060.9
533.26 25.76 993.7
521.97 25.09 967.9
530.11 25.36 978.3
515.81 24.56 947.4
510.50 24.19 933.2
550.89 25.99 1002.3
607.98 28.54 1101.0
615.98 28.78 1110.2
601.63 27.98 1079.3
609.13 28.20 1087.7
609.32 28.08 1083.0
625.22 28.68 1106.2
646.64 29.53 1138.9
635.00 28.86 1113.3
679.42 30.74 1185.8
685.83 30.62 1181.0
383.07 35.18 1507.7
363.87 33.08 1417.7
362.80 32.65 1399.4
361.38 32.20 1380.1
361.15 31.87 1365.7
366.78 32.05 1373.5
363.07 31.42 1346.6
353.98 30.34 1300.3
352.35 29.92 1282.1
356.24 29.96 1284.2
363.91 30.33 1299.7
365.67 30.19 1294.0
361.92 29.61 1269.1
369.38 29.95 1283.6
378.03 30.38 1301.9
375.24 29.89 1280.8
378.86 29.91 1281.9
383.91 30.05 1287.7
372.00 28.86 1237.0
361.88 27.84 1193.0
367.93 28.06 1202.7
374.31 28.31 1213.3
378.96 28.42 1218.1
384.53 28.60 1225.8
387.42 28.58 1224.9
395.17 28.91 1239.2
404.50 29.36 1258.3
407.46 29.34 1257.3
401.40 28.67 1228.8
397.40 28.16 1206.9
406.52 28.58 1225.0
412.86 28.80 1234.5
408.39 28.27 1211.7
417.00 28.65 1227.8
425.03 28.98 1242.0
415.85 28.14 1206.0
421.59 28.32 1213.5
438.93 29.26 1254.1
444.15 29.39 1259.7
436.68 28.69 1229.4
427.72 27.89 1195.5
429.44 27.81 1191.7
439.00 28.22 1209.5
446.23 28.48 1220.7
451.78 28.63 1227.2
461.18 29.03 1243.9
468.56 29.28 1255.1
465.43 28.89 1238.1
457.62 28.21 1209.0
457.16 27.99 1199.5
465.60 28.31 1213.4
476.62 28.79 1233.8
484.48 29.07 1245.8
485.09 28.91 1239.1
485.67 28.76 1232.4
490.28 28.84 1236.0
487.11 28.47 1220.0
484.62 28.14 1206.0
486.18 28.05 1202.1
483.58 27.72 1188.1
499.11 28.43 1218.4
518.57 29.35 1258.0
527.10 29.65 1270.7
536.07 29.97 1284.3
546.65 30.37 1301.5
546.01 30.15 1292.0
514.81 28.25 1210.8
506.06 27.60 1183.0
505.49 27.41 1174.6
486.21 26.20 1123.0
508.22 27.23 1166.8
528.41 28.14 1206.0
510.07 27.00 1157.3
513.79 27.04 1158.9
511.82 26.78 1147.8
496.71 25.84 1107.4
494.57 25.58 1096.3
483.30 24.86 1065.2
471.06 24.09 1032.4
481.19 24.47 1048.6
500.61 25.31 1084.8
491.56 24.72 1059.2
475.22 23.76 1018.3
468.89 23.31 999.2
468.02 23.14 991.9
471.84 23.21 994.5
469.63 22.97 984.5
462.63 22.51 964.6
460.75 22.29 955.5
462.32 22.25 953.6
470.89 22.54 966.1
483.47 23.02 986.7
482.88 22.87 980.3
482.26 22.72 973.9
484.73 22.72 973.8
467.96 21.82 935.2
464.06 21.53 922.6
482.65 22.28 954.7
487.79 22.40 959.9
487.04 22.25 953.6
486.26 22.10 947.3
474.45 21.46 919.6
464.36 20.90 895.6
482.36 21.60 925.6
500.94 22.32 956.5
519.18 23.02 986.5
549.69 24.25 1039.3
574.32 25.21 1080.6
573.20 25.04 1073.3
538.02 23.39 1002.5
517.25 22.38 959.2
516.80 22.25 953.8
538.78 23.09 989.6
570.51 24.33 1042.9
566.33 24.04 1030.4
569.34 24.06 1031.0
600.97 25.27 1083.2
635.73 26.61 1140.5
623.33 25.97 1113.1
594.15 24.64 1056.1
567.20 23.42 1003.6
541.03 22.23 952.9
602.34 24.64 1056.0
685.57 27.67 1185.8
663.77 26.67 1143.0
382.60 31.23 1505.8
367.62 29.71 1432.3
369.09 29.53 1423.6
371.03 29.39 1416.9
373.69 29.31 1413.1
374.79 29.11 1403.5
367.52 28.27 1363.0
362.40 27.61 1331.3
363.49 27.43 1322.7
367.21 27.46 1323.7
375.25 27.80 1340.2
380.37 27.92 1346.0
378.39 27.52 1326.8
371.61 26.78 1291.3
366.34 26.17 1261.6
367.39 26.01 1254.0
374.34 26.27 1266.6
383.36 26.67 1285.8
376.63 25.97 1252.3
363.35 24.84 1197.9
365.90 24.81 1196.0
376.69 25.32 1221.0
385.81 25.72 1240.1
390.24 25.80 1244.0
391.36 25.66 1237.3
392.15 25.51 1229.7
394.73 25.47 1227.9
401.93 25.72 1240.2
401.11 25.47 1227.9
396.79 24.99 1205.1
406.85 25.43 1226.0
415.10 25.74 1241.2
411.61 25.33 1221.3
417.34 25.49 1228.8
422.46 25.60 1234.5
412.29 24.80 1195.7
417.35 24.92 1201.3
430.03 25.48 1228.7
430.87 25.35 1222.0
435.70 25.44 1226.7
437.51 25.36 1222.8
433.87 24.97 1204.0
438.68 25.07 1208.6
452.77 25.69 1238.6
466.31 26.27 1266.6
471.98 26.40 1273.1
474.18 26.34 1270.1
471.79 26.03 1255.0
464.37 25.44 1226.8
466.44 25.38 1223.9
478.16 25.85 1246.2
485.29 26.06 1256.3
487.76 26.01 1254.2
487.30 25.82 1244.8
489.00 25.74 1240.9
492.15 25.73 1240.7
484.91 25.19 1214.5
477.56 24.65 1188.4
474.21 24.32 1172.5
475.69 24.24 1168.7
494.96 25.06 1208.3
525.08 26.42 1273.8
547.05 27.35 1318.8
545.34 27.10 1306.5
543.96 26.86 1295.1
544.09 26.70 1287.5
518.36 25.29 1219.1
500.98 24.29 1171.1
487.73 23.51 1133.3
488.62 23.41 1128.5
531.00 25.29 1219.1
525.23 24.86 1198.7
484.69 22.81 1099.7
478.97 22.41 1080.4
471.53 21.93 1057.4
475.04 21.97 1059.1
489.25 22.49 1084.5
475.47 21.74 1048.0
459.87 20.90 1007.8
452.86 20.47 986.9
451.20 20.28 977.7
463.81 20.73 999.4
467.21 20.76 1001.2
476.55 21.06 1015.5
491.51 21.60 1041.7
475.29 20.78 1001.8
455.88 19.82 955.6
465.25 20.12 970.0
480.32 20.66 996.0
473.68 20.26 977.0
474.86 20.21 974.2
474.69 20.09 968.8
462.58 19.48 939.1
464.53 19.46 938.1
467.82 19.49 939.8
464.85 19.27 929.0
473.96 19.54 942.3
487.19 19.99 963.7
490.08 20.00 964.4
486.15 19.74 951.9
482.63 19.50 940.2
485.93 19.53 941.9
492.00 19.68 948.8
498.09 19.82 955.8
500.96 19.84 956.6
495.92 19.54 942.3
498.30 19.54 942.2
507.24 19.79 954.4
497.40 19.32 931.3
475.63 18.38 886.3
465.07 17.89 862.4
490.14 18.76 904.6
548.37 20.89 1007.2
609.40 23.11 1114.0
641.48 24.21 1167.1
593.05 22.27 1073.9
582.57 21.78 1050.0
599.25 22.30 1075.1
572.55 21.21 1022.4
585.84 21.60 1041.3
606.58 22.26 1073.2
596.84 21.80 1051.2
680.63 24.75 1193.3
654.36 23.58 1136.9
661.08 23.72 1143.4
384.83 27.49 1514.6
375.59 26.56 1463.3
376.13 26.33 1450.8
377.63 26.17 1442.1
375.50 25.77 1420.0
372.23 25.30 1393.9
370.66 24.95 1374.7
370.04 24.67 1359.3
366.69 24.22 1334.3
366.70 23.99 1321.9
367.72 23.83 1313.3
366.52 23.54 1297.0
374.57 23.84 1313.4
377.99 23.84 1313.5
365.24 22.83 1257.8
358.13 22.18 1222.4
361.04 22.17 1221.6
366.81 22.33 1230.3
377.80 22.80 1256.2
381.36 22.82 1257.2
377.62 22.40 1234.3
381.72 22.45 1237.3
384.64 22.44 1236.4
382.48 22.13 1219.2
388.67 22.30 1228.8
394.29 22.44 1236.5
393.22 22.20 1223.2
397.63 22.27 1227.0
402.99 22.39 1233.7
404.63 22.30 1228.9
408.13 22.32 1229.9
409.41 22.22 1224.2
410.67 22.11 1218.5
420.90 22.49 1239.3
434.78 23.06 1270.5
432.84 22.78 1255.3
425.24 22.21 1224.0
426.42 22.11 1218.3
431.23 22.20 1223.0
440.07 22.49 1239.0
436.85 22.16 1221.0
427.79 21.54 1187.1
433.24 21.66 1193.6
448.33 22.26 1226.4
459.77 22.66 1248.9
463.66 22.70 1250.6
470.70 22.88 1260.8
471.81 22.78 1255.1
462.27 22.16 1221.3
462.18 22.01 1212.7
473.52 22.40 1234.1
481.35 22.61 1246.1
480.90 22.44 1236.6
477.85 22.15 1220.6
476.55 21.95 1209.3
475.58 21.76 1198.9
480.86 21.86 1204.4
488.02 22.04 1214.4
489.98 21.99 1211.5
499.08 22.25 1226.1
515.45 22.84 1258.3
539.96 23.77 1309.9
559.33 24.47 1348.4
554.22 24.10 1327.8
545.15 23.56 1298.0
537.88 23.10 1272.8
536.38 22.89 1261.5
550.94 23.37 1287.9
539.53 22.75 1253.6
537.10 22.51 1240.5
545.80 22.74 1253.1
500.37 20.73 1142.0
452.85 18.65 1027.5
442.52 18.11 998.2
468.29 19.06 1050.2
501.25 20.28 1117.6
499.14 20.08 1106.5
475.49 19.02 1048.0
469.44 18.67 1028.8
471.23 18.64 1026.9
455.83 17.93 987.7
457.09 17.88 985.0
462.57 17.99 991.2
472.33 18.27 1006.5
493.66 18.99 1046.2
480.88 18.39 1013.6
464.08 17.66 972.8
479.53 18.14 999.8
483.81 18.21 1003.3
468.03 17.52 965.4
457.79 17.05 939.2
447.00 16.56 912.2
444.04 16.36 901.4
454.79 16.67 918.4
480.76 17.53 965.8
502.90 18.24 1005.1
484.31 17.48 962.9
466.45 16.74 922.7
469.72 16.78 924.4
468.89 16.66 918.1
474.43 16.77 924.2
485.49 17.08 941.0
506.74 17.74 977.3
528.61 18.41 1014.4
515.36 17.86 984.1
495.48 17.09 941.4
509.54 17.48 963.4
529.32 18.07 995.9
500.71 17.01 937.5
464.78 15.72 866.0
492.14 16.56 912.6
549.71 18.41 1014.5
537.39 17.91 987.0
534.57 17.73 977.2
588.04 19.42 1069.9
563.59 18.52 1020.6
532.14 17.41 959.1
540.37 17.59 969.4
555.96 18.02 992.8
616.26 19.88 1095.4
683.35 21.94 1209.1
701.46 22.32 1229.8
631.79 20.01 1102.7
618.98 19.52 1075.4
681.62 21.40 1179.0
384.11 23.52 1511.8
373.37 22.63 1454.7
372.89 22.37 1438.3
374.86 22.27 1431.6
373.22 21.95 1411.3
371.22 21.62 1390.1
370.67 21.38 1374.7
362.96 20.74 1333.3
353.72 20.02 1287.1
357.36 20.04 1288.2
362.07 20.12 1293.1
359.74 19.80 1273.0
366.91 20.01 1286.6
376.62 20.36 1308.7
368.88 19.76 1270.4
362.64 19.26 1237.8
365.02 19.21 1235.0
370.25 19.32 1241.8
380.69 19.69 1265.8
383.41 19.66 1264.0
377.63 19.20 1234.4
381.14 19.22 1235.4
383.17 19.16 1231.6
385.18 19.10 1227.9
395.32 19.44 1249.8
401.90 19.61 1260.3
401.81 19.44 1249.9
401.97 19.29 1240.3
403.63 19.22 1235.6
407.77 19.26 1238.5
412.87 19.35 1244.1
412.60 19.19 1233.7
411.64 19.00 1221.4
417.70 19.13 1229.9
426.06 19.37 1245.0
431.22 19.45 1250.6
431.82 19.34 1243.0
434.69 19.32 1242.0
441.88 19.49 1253.2
439.41 19.24 1237.1
425.75 18.51 1190.0
426.11 18.39 1182.4
442.13 18.95 1218.1
450.41 19.17 1232.1
454.60 19.21 1234.8
462.98 19.43 1248.8
474.92 19.79 1272.1
475.34 19.67 1264.5
463.70 19.06 1225.0
458.64 18.72 1203.4
464.23 18.82 1209.9
474.52 19.11 1228.4
476.93 19.08 1226.4
470.21 18.68 1201.1
465.21 18.36 1180.5
476.70 18.69 1201.8
497.56 19.39 1246.2
508.54 19.69 1265.5
515.11 19.81 1273.6
504.38 19.28 1239.1
495.00 18.80 1208.4
507.21 19.14 1230.4
513.38 19.25 1237.6
511.10 19.05 1224.5
505.67 18.73 1204.0
520.00 19.14 1230.5
552.05 20.20 1298.4
560.40 20.38 1310.0
541.53 19.57 1258.3
540.70 19.43 1248.8
545.42 19.48 1252.2
535.70 19.02 1222.7
515.37 18.19 1169.3
487.11 17.09 1098.7
499.26 17.42 1119.6
525.00 18.21 1170.5
512.31 17.67 1135.7
528.80 18.13 1165.5
558.70 19.05 1224.4
508.78 17.25 1108.7
460.03 15.51 996.9
467.21 15.66 1006.8
477.81 15.93 1023.9
458.33 15.19 976.7
451.44 14.88 956.7
458.18 15.02 965.7
456.34 14.88 956.6
461.82 14.98 962.9
457.77 14.77 949.3
447.98 14.37 924.0
442.04 14.11 906.9
458.45 14.55 935.6
483.82 15.28 982.2
475.22 14.93 959.7
482.56 15.08 969.4
511.87 15.91 1023.0
498.26 15.41 990.6
480.00 14.77 949.5
485.13 14.85 954.7
468.90 14.28 918.1
458.00 13.88 892.2
477.71 14.40 925.9
508.14 15.24 980.0
530.47 15.84 1018.0
522.34 15.52 997.4
500.15 14.78 950.3
521.24 15.33 985.5
566.41 16.58 1065.7
559.14 16.29 1046.9
502.14 14.55 935.7
514.47 14.84 954.0
570.68 16.38 1053.2
545.06 15.57 1001.1
494.27 14.06 903.5
486.92 13.78 885.9
544.27 15.33 985.6
613.17 17.19 1105.2
580.79 16.21 1042.0
569.17 15.81 1016.4
597.16 16.51 1061.4
619.91 17.06 1096.8
639.83 17.53 1126.9
614.79 16.77 1077.9
577.13 15.67 1007.3
597.05 16.14 1037.3
634.60 17.07 1097.6
658.82 17.65 1134.5
388.79 19.64 1514.8
378.17 18.91 1458.7
372.09 18.42 1421.0
370.93 18.18 1402.7
369.42 17.93 1383.4
371.73 17.87 1378.7
366.65 17.46 1346.9
357.18 16.85 1299.7
361.38 16.89 1302.7
369.09 17.09 1318.2
369.27 16.94 1306.7
366.64 16.67 1285.6
366.68 16.52 1274.2
370.57 16.54 1276.2
374.46 16.57 1278.2
371.27 16.28 1256.2
369.98 16.09 1240.9
378.69 16.32 1259.2
380.52 16.26 1254.5
374.72 15.88 1224.9
377.62 15.87 1224.0
381.40 15.89 1225.9
385.20 15.92 1227.9
394.12 16.15 1246.1
399.18 16.23 1251.8
397.23 16.02 1235.6
396.12 15.84 1222.3
400.54 15.89 1226.1
407.79 16.05 1238.5
410.36 16.03 1236.6
406.27 15.75 1214.8
408.14 15.70 1211.0
416.43 15.89 1226.1
426.07 16.14 1245.0
431.89 16.24 1252.5
429.54 16.03 1236.4
429.09 15.89 1226.0
437.91 16.10 1242.0
438.42 16.00 1234.4
428.80 15.54 1198.5
434.94 15.65 1206.9
449.99 16.07 1239.8
457.29 16.22 1250.9
457.04 16.09 1241.4
460.21 16.09 1241.3
471.78 16.38 1263.7
471.14 16.25 1253.3
472.56 16.18 1248.5
480.73 16.35 1261.4
474.63 16.03 1237.0
472.02 15.84 1221.9
491.08 16.37 1262.8
503.03 16.66 1284.9
484.65 15.94 1229.9
484.09 15.82 1220.4
510.55 16.58 1278.7
527.95 17.03 1313.8
530.88 17.02 1312.6
515.33 16.41 1266.0
490.09 15.51 1196.4
481.69 15.15 1168.5
489.26 15.29 1179.5
488.78 15.18 1171.0
487.88 15.06 1161.6
506.00 15.52 1197.4
549.72 16.76 1292.9
571.82 17.33 1336.7
558.54 16.82 1297.8
558.59 16.72 1290.2
518.68 15.44 1190.9
470.71 13.93 1074.3
487.97 14.35 1107.2
497.26 14.54 1121.6
487.06 14.16 1092.2
491.87 14.22 1096.7
507.39 14.58 1124.8
546.17 15.60 1203.8
546.26 15.52 1197.2
479.60 13.55 1045.1
447.06 12.56 968.7
462.60 12.92 996.8
480.36 13.34 1029.4
463.44 12.80 987.6
457.85 12.58 970.3
468.48 12.80 987.4
455.93 12.39 955.7
450.16 12.17 938.6
452.14 12.15 937.6
449.31 12.01 926.8
454.75 12.09 933.0
484.86 12.83 989.5
501.51 13.20 1018.1
481.00 12.59 971.4
466.98 12.16 938.1
472.51 12.24 944.3
495.13 12.76 984.4
515.66 13.22 1020.0
510.51 13.02 1004.7
483.02 12.26 945.7
451.62 11.40 879.8
449.30 11.29 870.9
482.84 12.07 931.2
513.39 12.77 985.2
532.56 13.18 1016.9
533.69 13.15 1014.1
546.04 13.38 1032.4
585.20 14.27 1101.1
570.46 13.85 1068.1
505.47 12.21 941.9
497.39 11.96 922.4
532.59 12.74 982.9
587.15 13.98 1078.4
618.58 14.66 1130.8
572.67 13.51 1041.9
621.14 14.58 1124.8
644.23 15.05 1161.2
556.47 12.94 998.3
530.59 12.28 947.5
537.36 12.38 955.1
563.84 12.93 997.6
589.99 13.47 1039.1
625.71 14.22 1097.0
654.20 14.80 1141.8
642.96 14.48 1117.1
653.13 14.64 1129.7
713.58 15.93 1228.7
382.65 15.62 1506.1
383.58 15.50 1494.5
379.18 15.17 1462.6
367.54 14.56 1403.6
361.74 14.19 1367.9
366.85 14.25 1373.8
374.86 14.42 1390.3
372.18 14.18 1367.2
365.14 13.78 1328.7
368.34 13.77 1327.8
374.77 13.88 1338.5
370.37 13.59 1310.6
363.64 13.22 1275.1
363.93 13.11 1264.6
368.07 13.15 1267.6
375.03 13.28 1280.1
375.53 13.18 1270.6
369.13 12.84 1238.1
372.94 12.86 1240.1
377.63 12.91 1244.9
375.02 12.71 1225.9
374.09 12.57 1212.5
374.88 12.50 1205.0
381.92 12.63 1217.4
394.74 12.94 1248.0
400.41 13.02 1255.6
399.38 12.88 1242.3
398.29 12.75 1229.0
402.72 12.78 1232.8
404.98 12.76 1230.0
402.50 12.58 1212.9
404.70 12.55 1210.1
412.31 12.69 1223.3
414.83 12.67 1221.4
417.99 12.67 1221.4
429.62 12.92 1245.9
433.16 12.93 1246.8
431.09 12.77 1231.7
439.25 12.92 1245.8
448.48 13.09 1262.7
447.67 12.98 1251.3
447.50 12.88 1241.8
455.46 13.01 1254.8
459.02 13.02 1255.7
454.63 12.81 1234.9
451.88 12.64 1218.9
455.36 12.65 1219.7
465.87 12.85 1239.3
478.24 13.10 1263.5
483.24 13.15 1268.0
473.57 12.80 1234.2
471.67 12.66 1221.0
490.37 13.08 1260.9
508.88 13.48 1299.9
498.23 13.11 1264.3
490.74 12.83 1237.2
509.08 13.22 1275.1
520.13 13.42 1294.3
514.77 13.20 1272.8
522.12 13.30 1282.7
524.22 13.27 1279.7
514.86 12.95 1249.0
518.39 12.96 1249.7
522.30 12.98 1251.3
522.74 12.91 1244.6
516.92 12.69 1223.2
530.17 12.93 1246.9
546.67 13.25 1277.9
528.51 12.74 1228.0
516.89 12.38 1193.8
476.37 11.34 1093.7
435.81 10.32 994.7
449.26 10.57 1019.3
479.03 11.21 1080.5
492.36 11.45 1104.1
490.25 11.34 1093.0
499.18 11.48 1106.6
508.17 11.62 1120.1
491.07 11.16 1076.2
464.18 10.49 1011.5
455.03 10.23 986.0
462.61 10.34 996.8
470.65 10.46 1008.5
466.42 10.31 994.0
472.37 10.38 1001.1
476.63 10.42 1004.6
460.68 10.01 965.7
456.22 9.86 951.2
460.83 9.91 955.6
455.86 9.75 940.3
458.27 9.75 940.2
469.04 9.93 957.2
468.38 9.86 950.9
472.58 9.90 954.4
484.37 10.09 973.1
466.25 9.66 931.8
464.59 9.58 923.7
489.50 10.04 968.3
491.05 10.02 966.3
485.76 9.86 951.1
477.21 9.64 929.6
467.19 9.39 905.5
498.50 9.97 961.4
525.42 10.46 1008.3
530.72 10.51 1013.4
561.18 11.06 1066.3
598.88 11.74 1132.3
582.86 11.37 1096.7
514.42 9.99 963.2
476.16 9.20 887.3
496.46 9.55 920.6
521.65 9.98 962.7
563.74 10.74 1035.4
627.23 11.89 1146.6
618.44 11.67 1125.2
577.17 10.84 1045.2
510.35 9.54 919.9
490.27 9.12 879.5
494.93 9.17 883.8
535.90 9.88 952.6
612.56 11.24 1083.8
651.22 11.89 1147.0
692.11 12.58 1213.4
710.39 12.86 1239.8
687.86 12.39 1195.1
669.17 12.00 1157.4
704.05 12.57 1212.3
378.97 11.60 1491.6
376.13 11.40 1465.5
382.96 11.49 1477.1
379.70 11.28 1450.1
360.47 10.60 1363.1
353.96 10.31 1325.5
368.10 10.62 1365.2
371.40 10.61 1364.3
364.09 10.30 1324.8
367.28 10.30 1324.0
372.08 10.34 1328.9
366.30 10.08 1296.2
362.27 9.88 1270.3
364.21 9.84 1265.6
367.80 9.85 1266.6
374.20 9.93 1277.3
382.63 10.07 1294.6
384.28 10.02 1288.9
378.13 9.78 1257.3
373.86 9.59 1232.5
371.81 9.45 1215.4
372.04 9.38 1205.9
376.67 9.42 1210.7
387.61 9.61 1235.6
395.65 9.73 1250.9
396.16 9.66 1242.3
396.33 9.59 1232.8
396.14 9.51 1222.4
399.32 9.51 1222.4
400.93 9.47 1217.7
404.72 9.49 1219.6
414.22 9.63 1238.5
418.06 9.65 1240.4
416.12 9.53 1225.2
412.49 9.37 1205.3
416.92 9.40 1209.1
421.03 9.43 1211.9
420.19 9.34 1200.6
431.28 9.51 1223.2
443.80 9.72 1249.5
454.08 9.87 1269.2
464.12 10.02 1287.9
467.75 10.02 1288.7
465.55 9.91 1273.5
461.55 9.75 1253.7
459.89 9.65 1240.5
462.01 9.63 1237.5
471.51 9.76 1254.3
476.13 9.78 1257.9
472.21 9.64 1239.0
481.82 9.77 1255.7
500.51 10.08 1295.7
498.35 9.97 1281.5
491.75 9.77 1256.1
498.97 9.85 1266.2
511.77 10.03 1290.2
523.55 10.20 1311.3
525.36 10.17 1307.4
521.90 10.04 1290.4
532.69 10.18 1308.7
536.73 10.19 1310.3
527.83 9.96 1280.4
532.58 9.99 1283.9
536.18 9.99 1284.6
533.21 9.87 1269.5
524.32 9.65 1240.7
507.09 9.28 1192.6
488.08 8.87 1141.0
490.57 8.87 1139.9
504.59 9.06 1165.4
513.52 9.17 1179.0
518.09 9.20 1182.4
492.83 8.70 1118.2
484.31 8.50 1092.4
512.74 8.94 1149.8
522.59 9.06 1165.1
493.44 8.51 1093.8
479.68 8.22 1057.2
491.91 8.38 1078.0
492.55 8.35 1073.4
459.23 7.74 995.1
445.78 7.47 960.6
457.55 7.63 980.5
455.39 7.55 970.4
462.57 7.62 980.3
468.07 7.67 986.6
464.99 7.58 974.7
472.67 7.66 985.5
480.82 7.76 997.1
476.37 7.64 982.6
460.47 7.35 944.7
455.40 7.23 929.4
469.28 7.41 952.7
485.90 7.63 981.3
505.32 7.90 1015.2
494.90 7.69 989.1
476.73 7.37 947.8
482.75 7.43 954.9
490.60 7.51 965.5
493.95 7.52 967.1
490.46 7.43 955.4
488.29 7.36 946.4
504.04 7.56 972.1
509.25 7.60 977.2
505.68 7.51 965.6
521.14 7.70 990.2
523.62 7.70 990.0
480.10 7.03 903.3
475.80 6.93 890.9
506.91 7.35 944.5
526.37 7.59 976.1
539.76 7.75 996.1
543.66 7.77 998.6
550.46 7.83 1006.3
565.47 8.00 1028.8
540.44 7.61 978.7
501.63 7.03 904.1
499.04 6.96 895.3
532.57 7.40 951.0
624.17 8.63 1109.4
682.44 9.39 1207.5
682.83 9.35 1202.6
710.95 9.69 1246.5
711.39 9.66 1241.6
699.35 9.45 1215.1
689.70 9.28 1192.9
703.56 9.42 1211.5
389.07 7.86 1515.8
387.73 7.75 1495.5
381.23 7.55 1455.9
359.45 7.05 1359.3
343.91 6.68 1287.9
349.36 6.72 1295.7
365.89 6.97 1344.1
370.98 7.00 1349.9
367.82 6.88 1325.9
366.69 6.79 1309.6
362.50 6.65 1282.7
360.36 6.55 1263.6
360.35 6.49 1252.2
360.83 6.44 1242.7
367.17 6.50 1253.3
374.98 6.58 1268.7
378.00 6.57 1267.8
373.24 6.44 1241.1
370.96 6.34 1223.0
371.23 6.29 1213.5
378.82 6.37 1227.9
391.53 6.53 1258.5
390.01 6.45 1243.2
385.70 6.32 1219.4
390.09 6.34 1223.3
393.58 6.35 1224.3
394.30 6.31 1216.7
397.77 6.31 1217.7
401.24 6.32 1218.6
407.24 6.36 1227.2
411.37 6.38 1230.0
410.72 6.32 1218.6
415.81 6.35 1224.3
419.62 6.36 1226.2
420.18 6.32 1218.6
420.05 6.27 1209.1
421.85 6.25 1205.3
436.27 6.42 1237.3
435.44 6.36 1225.9
431.52 6.25 1206.1
448.87 6.46 1245.6
460.59 6.58 1269.0
465.90 6.61 1274.5
469.85 6.62 1276.2
466.85 6.53 1259.2
467.97 6.50 1253.5
482.78 6.66 1284.2
492.77 6.75 1301.8
488.95 6.65 1283.0
500.09 6.76 1303.3
516.01 6.93 1335.8
510.32 6.80 1312.2
497.59 6.59 1271.1
497.15 6.54 1261.6
508.09 6.64 1280.9
517.26 6.72 1295.5
529.47 6.83 1317.6
538.03 6.90 1330.3
540.24 6.88 1327.2
534.09 6.76 1303.8
521.74 6.56 1265.7
521.09 6.51 1256.2
529.64 6.58 1268.9
533.99 6.59 1271.4
523.94 6.43 1239.8
505.14 6.16 1188.1
494.77 6.00 1156.6
506.00 6.10 1175.7
514.13 6.16 1187.5
521.11 6.20 1196.4
544.98 6.45 1243.8
534.78 6.29 1213.4
474.99 5.56 1071.4
455.32 5.29 1021.1
506.22 5.85 1128.7
513.18 5.90 1137.6
468.94 5.36 1033.6
459.54 5.22 1007.1
494.22 5.58 1077.0
490.24 5.51 1062.3
463.04 5.17 997.8
464.32 5.16 995.0
468.99 5.18 999.4
482.20 5.30 1021.9
483.94 5.29 1020.0
475.33 5.17 996.4
489.54 5.29 1020.7
506.02 5.44 1049.4
492.96 5.27 1016.8
467.48 4.97 959.1
458.49 4.85 935.7
467.96 4.93 950.0
476.15 4.99 961.6
482.60 5.03 969.5
492.22 5.10 983.7
492.01 5.07 978.2
495.84 5.09 980.8
502.84 5.13 989.6
489.87 4.97 959.1
470.37 4.75 916.3
471.33 4.74 913.6
489.77 4.90 944.6
507.87 5.05 974.6
520.53 5.15 993.9
521.15 5.13 990.2
505.39 4.95 955.6
457.11 4.46 860.1
478.54 4.62 891.7
497.42 4.78 922.4
509.75 4.88 940.8
513.55 4.89 943.3
536.55 5.09 980.8
565.96 5.34 1029.7
580.57 5.45 1051.3
587.51 5.49 1058.9
566.72 5.27 1016.7
586.32 5.43 1047.0
670.26 6.18 1191.4
678.51 6.22 1200.5
650.25 5.94 1145.3
664.39 6.04 1164.8
683.56 6.19 1193.0
685.89 6.18 1191.7
393.05 3.97 1531.4
386.48 3.86 1490.7
375.91 3.72 1435.6
364.05 3.57 1376.7
356.81 3.46 1336.2
356.39 3.43 1321.8
367.47 3.50 1349.9
377.88 3.56 1375.0
379.32 3.55 1367.4
370.47 3.43 1323.1
360.05 3.30 1274.1
361.46 3.29 1267.5
364.50 3.28 1266.6
361.39 3.23 1244.6
362.96 3.21 1238.9
371.58 3.26 1257.2
376.01 3.27 1261.1
371.81 3.21 1236.3
369.52 3.16 1218.2
374.45 3.17 1224.0
386.79 3.25 1253.7
399.85 3.33 1285.2
399.59 3.30 1273.8
392.04 3.21 1239.5
393.74 3.20 1234.7
398.79 3.22 1240.5
399.85 3.20 1233.8
404.92 3.21 1239.5
409.69 3.23 1244.3
411.65 3.22 1240.5
412.01 3.19 1231.9
411.37 3.16 1220.5
416.78 3.18 1227.2
423.51 3.21 1237.5
428.01 3.22 1241.3
434.49 3.24 1250.7
443.00 3.28 1265.7
450.24 3.31 1276.9
441.13 3.22 1242.0
434.56 3.15 1214.6
449.21 3.23 1246.5
454.80 3.25 1253.0
453.54 3.22 1240.7
462.60 3.26 1256.5
464.42 3.25 1252.7
465.87 3.24 1247.9
479.62 3.31 1275.8
493.13 3.38 1302.8
492.52 3.35 1292.3
495.44 3.35 1291.2
502.32 3.37 1300.3
502.71 3.35 1292.7
496.51 3.29 1268.3
498.25 3.28 1264.4
511.78 3.34 1290.2
516.15 3.35 1292.8
522.02 3.37 1299.0
526.04 3.37 1300.6
523.66 3.34 1286.5
527.27 3.34 1287.2
526.69 3.31 1277.7
527.22 3.30 1271.0
536.96 3.34 1286.4
534.77 3.30 1273.3
515.77 3.16 1220.5
512.19 3.12 1204.6
521.91 3.16 1220.1
502.05 3.02 1166.5
481.55 2.88 1112.2
495.96 2.95 1138.7
534.95 3.17 1220.9
542.85 3.19 1231.7
492.43 2.88 1110.7
454.92 2.64 1020.2
477.58 2.76 1064.8
499.61 2.87 1107.5
472.66 2.70 1041.8
439.20 2.50 962.5
449.19 2.54 978.9
477.26 2.68 1034.2
480.31 2.68 1035.0
480.82 2.67 1030.3
484.28 2.68 1032.0
495.86 2.72 1050.9
496.37 2.71 1046.2
472.32 2.57 990.1
471.81 2.55 983.7
487.78 2.62 1011.5
477.26 2.55 984.4
464.86 2.47 953.7
467.73 2.47 954.6
476.80 2.51 967.9
485.47 2.54 980.4
477.70 2.49 959.7
469.40 2.43 938.1
466.85 2.41 928.2
469.67 2.41 929.0
495.14 2.53 974.4
501.70 2.55 982.3
483.62 2.44 942.1
486.47 2.44 942.9
500.36 2.50 965.0
514.81 2.56 987.9
534.91 2.65 1021.4
538.85 2.65 1023.9
533.45 2.61 1008.6
495.13 2.42 931.6
467.80 2.27 875.9
486.59 2.35 906.7
492.20 2.37 912.7
497.37 2.38 917.9
536.50 2.55 985.4
603.74 2.86 1103.7
618.94 2.92 1126.1
620.70 2.91 1124.0
640.39 2.99 1154.2
628.07 2.92 1126.8
588.77 2.73 1051.4
601.13 2.77 1068.5
652.93 3.00 1155.3
656.18 3.00 1155.7
662.41 3.01 1161.4
684.56 3.10 1194.8
386.86 -0.00 1522.6
389.07 -0.00 1515.9
391.25 -0.00 1509.1
376.17 -0.00 1436.6
360.73 -0.00 1364.1
365.84 -0.00 1370.0
375.92 -0.00 1394.2
373.25 -0.00 1371.1
371.25 -0.00 1350.9
369.96 -0.00 1333.6
359.15 -0.00 1282.7
357.33 -0.00 1264.5
365.58 -0.00 1281.9
369.20 -0.00 1282.9
367.25 -0.00 1264.8
364.93 -0.00 1245.6
369.88 -0.00 1251.5
380.58 -0.00 1276.5
382.17 -0.00 1270.8
380.55 -0.00 1254.6
386.16 -0.00 1262.3
388.56 -0.00 1259.4
390.64 -0.00 1255.6
400.19 -0.00 1275.7
402.60 -0.00 1272.8
391.31 -0.00 1227.1
384.40 -0.00 1195.7
388.14 -0.00 1197.7
396.22 -0.00 1212.9
404.06 -0.00 1227.2
408.82 -0.00 1231.9
413.91 -0.00 1237.6
417.76 -0.00 1239.5
426.10 -0.00 1254.6
436.14 -0.00 1274.4
433.55 -0.00 1257.4
432.85 -0.00 1246.0
440.69 -0.00 1259.1
446.58 -0.00 1266.6
450.84 -0.00 1269.3
457.80 -0.00 1279.6
464.47 -0.00 1288.9
460.60 -0.00 1269.0
456.64 -0.00 1249.2
462.94 -0.00 1257.5
464.77 -0.00 1253.6
466.22 -0.00 1248.8
471.88 -0.00 1255.2
476.85 -0.00 1259.8
485.04 -0.00 1272.7
497.23 -0.00 1295.9
505.56 -0.00 1308.7
507.79 -0.00 1305.7
501.61 -0.00 1281.3
503.39 -0.00 1277.4
519.89 -0.00 1310.7
528.02 -0.00 1322.5
523.88 -0.00 1303.7
515.92 -0.00 1275.6
527.80 -0.00 1296.7
548.12 -0.00 1338.1
541.94 -0.00 1314.7
535.65 -0.00 1291.3
546.60 -0.00 1309.5
546.77 -0.00 1301.8
534.46 -0.00 1264.7
535.67 -0.00 1259.8
533.71 -0.00 1247.6
502.84 -0.00 1168.4
489.90 -0.00 1131.5
509.14 -0.00 1168.9
520.51 -0.00 1188.0
499.70 -0.00 1133.8
511.88 -0.00 1154.6
541.26 -0.00 1213.8
519.33 -0.00 1157.9
500.85 -0.00 1110.3
467.71 -0.00 1030.9
430.90 -0.00 944.3
446.68 -0.00 973.4
479.77 -0.00 1039.6
467.26 -0.00 1006.9
454.60 -0.00 974.1
467.72 -0.00 996.7
488.61 -0.00 1035.5
485.23 -0.00 1022.7
458.11 -0.00 960.3
453.65 -0.00 945.8
466.50 -0.00 967.4
476.82 -0.00 983.5
482.82 -0.00 990.6
487.98 -0.00 995.9
501.10 -0.00 1017.3
497.45 -0.00 1004.6
476.81 -0.00 957.9
472.54 -0.00 944.4
474.04 -0.00 942.5
479.60 -0.00 948.7
508.28 -0.00 1000.3
514.43 -0.00 1007.2
490.93 -0.00 956.4
493.35 -0.00 956.2
510.95 -0.00 985.4
507.42 -0.00 973.7
504.76 -0.00 963.8
516.50 -0.00 981.4
521.76 -0.00 986.5
529.86 -0.00 996.9
551.18 -0.00 1032.0
550.42 -0.00 1025.6
541.09 -0.00 1003.4
554.06 -0.00 1022.5
596.75 -0.00 1096.1
638.30 -0.00 1166.8
627.62 -0.00 1141.9
588.31 -0.00 1065.4
576.84 -0.00 1039.7
622.23 -0.00 1116.3
658.64 -0.00 1176.1
631.05 -0.00 1121.7
642.60 -0.00 1137.0
641.37 -0.00 1129.6
654.98 -0.00 1148.3
671.14 -0.00 1171.4
381.69 -3.89 1502.3
384.60 -3.88 1498.4
385.98 -3.86 1488.8
369.58 -3.66 1411.4
352.55 -3.46 1333.2
356.29 -3.46 1334.2
368.11 -3.54 1365.2
367.20 -3.50 1348.9
363.57 -3.43 1322.9
361.14 -3.38 1301.8
359.95 -3.33 1285.6
366.31 -3.36 1296.2
369.41 -3.36 1295.3
368.37 -3.32 1280.0
369.76 -3.30 1273.4
371.67 -3.29 1268.7
374.70 -3.29 1267.8
383.43 -3.33 1286.1
384.19 -3.31 1277.5
380.84 -3.26 1255.5
383.81 -3.25 1254.6
383.25 -3.22 1242.2
382.92 -3.19 1230.8
388.52 -3.21 1238.5
396.56 -3.25 1253.8
391.92 -3.19 1229.0
385.63 -3.11 1199.5
390.91 -3.13 1206.2
397.77 -3.16 1217.7
403.75 -3.18 1226.2
409.76 -3.20 1234.8
415.82 -3.22 1243.3
418.07 -3.22 1240.4
424.82 -3.24 1250.8
434.20 -3.29 1268.8
429.97 -3.23 1246.9
427.93 -3.19 1231.8
434.74 -3.22 1242.1
444.92 -3.27 1261.9
453.85 -3.31 1277.8
449.38 -3.26 1256.0
443.45 -3.19 1230.5
455.48 -3.25 1254.9
468.31 -3.32 1281.1
470.20 -3.31 1277.2
467.55 -3.27 1261.1
468.32 -3.25 1254.4
473.28 -3.26 1259.0
480.39 -3.29 1269.1
492.16 -3.35 1291.4
502.96 -3.40 1310.8
510.25 -3.42 1320.9
507.79 -3.39 1305.7
496.14 -3.29 1267.3
501.55 -3.30 1272.7
521.37 -3.41 1314.4
529.50 -3.44 1326.2
526.12 -3.39 1309.2
524.91 -3.36 1297.9
542.88 -3.46 1333.7
561.77 -3.56 1371.4
556.42 -3.50 1349.8
539.10 -3.37 1299.6
535.42 -3.33 1282.7
551.42 -3.40 1312.9
560.92 -3.44 1327.3
560.71 -3.42 1318.7
554.56 -3.36 1296.4
528.14 -3.18 1227.2
511.75 -3.06 1182.0
517.92 -3.08 1189.1
518.10 -3.07 1182.5
507.36 -2.98 1151.1
535.39 -3.13 1207.6
551.44 -3.21 1236.6
520.96 -3.01 1161.5
525.11 -3.02 1164.0
498.69 -2.85 1099.2
457.05 -2.60 1001.6
477.55 -2.70 1040.7
483.12 -2.71 1046.9
445.79 -2.49 960.6
437.26 -2.43 937.0
453.27 -2.50 965.9
464.71 -2.55 984.9
452.22 -2.47 953.2
443.47 -2.41 929.6
454.51 -2.46 947.6
461.72 -2.48 957.5
467.22 -2.50 963.7
472.31 -2.51 969.0
475.66 -2.52 970.7
497.12 -2.62 1009.2
502.78 -2.63 1015.3
479.93 -2.50 964.2
474.33 -2.46 947.9
481.68 -2.48 957.7
496.74 -2.55 982.6
489.26 -2.50 962.8
454.39 -2.31 889.7
463.07 -2.34 902.1
502.52 -2.53 974.0
515.09 -2.58 993.4
509.26 -2.53 977.3
492.70 -2.44 940.8
489.02 -2.41 929.2
513.34 -2.52 970.6
544.87 -2.66 1025.2
579.92 -2.82 1085.8
589.20 -2.85 1097.9
562.93 -2.71 1043.9
558.35 -2.67 1030.4
536.98 -2.56 986.3
492.88 -2.34 901.0
512.50 -2.42 932.4
534.65 -2.51 968.2
519.11 -2.43 935.6
546.76 -2.54 980.9
623.46 -2.89 1113.3
663.90 -3.06 1180.1
632.26 -2.90 1118.7
592.00 -2.70 1042.7
601.47 -2.73 1054.5
586.63 -2.65 1023.8
641.50 -2.89 1114.6
381.93 -7.79 1503.2
380.37 -7.68 1481.9
378.20 -7.56 1458.8
374.39 -7.41 1429.8
367.63 -7.21 1390.2
355.77 -6.91 1332.3
354.57 -6.82 1315.0
358.79 -6.83 1318.0
360.38 -6.80 1311.4
365.14 -6.83 1316.3
370.47 -6.86 1323.1
369.84 -6.79 1308.7
367.49 -6.68 1288.6
366.98 -6.61 1275.2
368.64 -6.58 1269.5
369.70 -6.54 1261.9
372.15 -6.53 1259.1
372.57 -6.48 1249.6
366.33 -6.32 1218.1
374.16 -6.40 1233.5
388.20 -6.58 1268.9
383.24 -6.44 1242.2
378.16 -6.30 1215.5
385.82 -6.38 1229.9
395.66 -6.49 1250.9
398.30 -6.48 1249.0
399.09 -6.44 1241.4
398.61 -6.38 1230.0
398.70 -6.33 1220.5
404.37 -6.37 1228.1
409.13 -6.39 1232.9
420.89 -6.53 1258.5
428.93 -6.60 1272.6
423.85 -6.47 1248.0
419.30 -6.35 1225.2
421.49 -6.34 1222.4
427.27 -6.38 1229.9
430.11 -6.37 1228.9
435.61 -6.41 1235.4
446.15 -6.51 1256.1
442.97 -6.42 1238.1
437.68 -6.30 1214.5
449.68 -6.42 1238.9
465.21 -6.60 1272.6
470.88 -6.63 1279.1
476.93 -6.67 1286.4
485.80 -6.75 1301.3
476.80 -6.58 1268.3
470.47 -6.44 1242.9
489.67 -6.66 1284.8
509.77 -6.89 1328.5
513.12 -6.89 1328.3
506.33 -6.75 1302.0
495.77 -6.57 1266.4
502.28 -6.61 1274.6
521.73 -6.82 1315.3
529.49 -6.88 1326.2
534.32 -6.89 1329.6
542.53 -6.96 1341.4
537.60 -6.85 1320.8
529.92 -6.71 1293.7
544.22 -6.85 1320.2
551.74 -6.90 1330.1
542.74 -6.74 1300.3
550.25 -6.79 1310.1
558.97 -6.86 1322.7
559.92 -6.83 1316.9
551.01 -6.68 1288.1
521.02 -6.28 1210.6
520.88 -6.24 1203.1
547.46 -6.52 1256.9
532.94 -6.31 1216.4
511.39 -6.02 1160.3
522.01 -6.11 1177.5
522.93 -6.08 1172.7
519.32 -6.00 1157.9
533.33 -6.13 1182.3
531.74 -6.08 1172.0
505.61 -5.75 1108.1
475.04 -5.37 1035.2
439.54 -4.94 952.5
420.53 -4.70 906.2
425.00 -4.72 910.7
444.35 -4.91 946.9
456.60 -5.02 967.7
456.93 -4.99 963.1
458.97 -4.99 962.1
464.46 -5.02 968.4
466.06 -5.01 966.5
462.86 -4.95 954.7
460.91 -4.90 945.6
458.49 -4.85 935.7
475.03 -5.00 964.3
498.34 -5.22 1006.4
493.74 -5.14 991.9
481.03 -4.98 961.4
481.23 -4.96 956.8
494.03 -5.07 977.2
486.99 -4.97 958.4
464.85 -4.72 910.2
489.55 -4.94 953.7
510.76 -5.13 990.0
499.44 -4.99 963.2
505.10 -5.03 969.3
496.87 -4.92 948.8
485.75 -4.79 923.0
504.92 -4.95 954.7
530.32 -5.17 997.8
550.24 -5.34 1030.3
549.00 -5.30 1023.0
515.93 -4.96 956.7
522.62 -5.00 964.5
511.63 -4.87 939.7
494.31 -4.69 903.6
535.61 -5.05 974.5
565.10 -5.31 1023.3
559.37 -5.23 1008.2
549.19 -5.11 985.3
581.43 -5.38 1038.3
681.05 -6.28 1210.6
722.30 -6.63 1278.0
687.28 -6.28 1210.5
691.14 -6.28 1211.7
386.60 -11.83 1521.6
389.06 -11.79 1515.8
381.70 -11.45 1472.3
373.88 -11.11 1427.8
375.04 -11.03 1418.2
369.18 -10.75 1382.5
357.69 -10.32 1326.6
352.75 -10.08 1295.8
361.44 -10.23 1315.2
372.36 -10.44 1342.3
369.11 -10.25 1318.3
361.13 -9.94 1277.9
365.29 -9.96 1280.9
371.13 -10.03 1289.6
371.42 -9.95 1279.1
371.38 -9.86 1267.7
370.72 -9.76 1254.3
368.57 -9.61 1236.2
365.75 -9.46 1216.2
377.34 -9.68 1244.0
390.24 -9.92 1275.6
383.24 -9.66 1242.2
379.05 -9.48 1218.4
387.31 -9.60 1234.6
397.16 -9.77 1255.7
399.81 -9.75 1253.8
396.94 -9.60 1234.7
393.37 -9.44 1213.8
399.32 -9.51 1222.4
411.56 -9.72 1250.0
408.81 -9.58 1231.9
412.32 -9.59 1232.8
425.09 -9.81 1261.3
423.52 -9.70 1247.0
421.24 -9.57 1230.9
426.37 -9.62 1236.5
431.20 -9.65 1241.2
433.41 -9.63 1238.3
435.93 -9.62 1236.4
443.13 -9.70 1247.6
444.32 -9.66 1241.9
442.76 -9.56 1228.6
449.33 -9.63 1237.9
459.37 -9.77 1256.6
470.19 -9.93 1277.2
481.79 -10.11 1299.5
487.19 -10.15 1305.0
473.97 -9.81 1260.8
464.44 -9.54 1227.0
479.69 -9.79 1258.7
500.44 -10.14 1304.2
503.39 -10.14 1303.1
504.15 -10.08 1296.4
502.33 -9.98 1283.1
504.11 -9.95 1279.2
517.67 -10.15 1305.0
524.29 -10.21 1313.2
528.35 -10.23 1314.8
526.78 -10.13 1302.5
510.45 -9.75 1254.1
507.93 -9.64 1240.0
526.68 -9.94 1277.7
544.84 -10.22 1313.4
547.35 -10.20 1311.3
556.44 -10.30 1324.9
568.70 -10.47 1345.7
568.91 -10.41 1338.0
559.66 -10.18 1308.3
538.80 -9.74 1251.9
548.69 -9.86 1267.3
558.24 -9.97 1281.7
523.30 -9.29 1194.4
506.14 -8.93 1148.4
518.76 -9.10 1170.1
517.22 -9.02 1159.9
512.36 -8.88 1142.3
518.52 -8.94 1149.4
506.12 -8.68 1115.5
518.48 -8.84 1136.3
523.41 -8.87 1140.6
467.19 -7.87 1012.4
434.41 -7.28 936.1
432.60 -7.21 927.0
445.19 -7.38 948.7
477.50 -7.87 1012.0
498.08 -8.17 1049.8
488.67 -7.97 1024.4
489.53 -7.94 1020.6
475.61 -7.67 986.3
460.23 -7.38 949.3
458.28 -7.31 940.2
454.96 -7.22 928.5
462.65 -7.30 939.2
479.25 -7.53 967.8
493.29 -7.71 991.0
503.40 -7.82 1006.1
486.16 -7.52 966.6
482.75 -7.43 954.9
487.89 -7.47 960.1
473.49 -7.21 927.1
478.59 -7.25 932.3
479.58 -7.23 929.6
475.50 -7.13 917.0
484.76 -7.24 930.2
519.13 -7.71 991.3
554.21 -8.19 1053.0
514.27 -7.56 972.4
487.61 -7.14 917.4
488.04 -7.11 913.8
466.71 -6.76 869.7
467.51 -6.74 867.0
505.46 -7.26 932.8
541.75 -7.74 995.1
585.49 -8.32 1070.3
590.99 -8.36 1075.3
589.75 -8.31 1068.0
600.60 -8.42 1082.5
602.25 -8.40 1080.5
589.73 -8.19 1053.1
625.64 -8.65 1112.1
387.97 -15.52 1496.4
375.39 -14.87 1433.6
372.47 -14.61 1408.5
366.59 -14.24 1372.8
354.29 -13.63 1314.0
347.75 -13.25 1277.4
353.48 -13.34 1286.2
366.20 -13.69 1320.1
365.06 -13.52 1303.8
358.67 -13.16 1269.2
363.64 -13.22 1275.1
373.33 -13.45 1297.3
377.27 -13.47 1299.3
377.56 -13.36 1288.8
377.80 -13.26 1278.3
380.85 -13.25 1277.4
383.60 -13.23 1275.5
381.98 -13.06 1259.3
380.87 -12.91 1245.0
380.58 -12.79 1233.6
382.60 -12.75 1229.8
387.00 -12.79 1233.7
392.02 -12.85 1239.4
394.94 -12.84 1238.5
393.57 -12.70 1224.2
388.43 -12.43 1198.6
394.65 -12.53 1208.1
404.67 -12.75 1229.0
399.98 -12.50 1205.3
397.72 -12.33 1189.2
404.32 -12.44 1199.6
413.54 -12.63 1217.6
422.52 -12.80 1234.6
433.21 -13.03 1256.3
446.94 -13.34 1286.5
445.95 -13.21 1274.1
443.57 -13.05 1258.0
456.84 -13.34 1286.2
463.84 -13.44 1296.5
453.60 -13.05 1258.7
451.71 -12.91 1244.5
462.45 -13.12 1265.1
473.98 -13.35 1287.5
476.56 -13.33 1285.4
472.15 -13.12 1264.7
475.02 -13.10 1263.6
481.07 -13.18 1270.9
478.25 -13.01 1254.9
477.51 -12.91 1244.5
491.85 -13.20 1273.2
504.50 -13.45 1297.3
512.52 -13.58 1309.2
523.89 -13.79 1329.4
524.66 -13.72 1322.7
517.61 -13.44 1296.4
526.47 -13.59 1310.1
529.77 -13.58 1309.9
522.12 -13.30 1282.7
529.52 -13.41 1292.7
531.63 -13.37 1289.7
529.88 -13.25 1277.4
531.93 -13.22 1274.4
540.55 -13.35 1287.0
566.35 -13.90 1340.2
583.77 -14.24 1373.0
571.05 -13.84 1334.9
545.11 -13.14 1266.6
562.58 -13.48 1299.4
581.39 -13.84 1334.8
540.15 -12.78 1232.8
512.98 -12.07 1163.9
508.62 -11.90 1147.3
489.11 -11.37 1096.8
503.34 -11.64 1122.2
529.20 -12.17 1173.1
500.74 -11.45 1103.7
501.86 -11.41 1099.9
507.97 -11.48 1107.0
455.87 -10.24 987.8
465.55 -10.40 1003.2
504.90 -11.22 1081.9
473.64 -10.47 1009.3
468.53 -10.30 993.0
492.49 -10.76 1038.0
483.92 -10.52 1014.4
482.17 -10.43 1005.3
470.39 -10.12 975.5
456.30 -9.76 941.2
454.33 -9.67 932.1
454.52 -9.62 927.6
465.29 -9.80 944.6
478.79 -10.03 966.9
492.84 -10.27 990.1
495.34 -10.27 989.9
474.92 -9.79 944.2
478.68 -9.82 946.8
485.61 -9.91 955.7
454.83 -9.24 890.5
447.02 -8.99 866.4
452.01 -9.04 871.7
470.43 -9.36 902.7
510.77 -10.11 975.3
522.06 -10.29 992.0
474.99 -9.31 898.1
472.11 -9.21 888.3
494.63 -9.60 926.1
484.67 -9.37 903.1
499.30 -9.60 925.9
