ply
format ascii 1.0
element vertex 2234
property float x
property float y
property float z
end_header
882.21 64.16 2062.3
878.43 63.50 2041.1
897.98 64.53 2074.0
926.05 66.15 2126.1
927.47 65.86 2116.8
913.52 64.48 2072.7
915.99 64.28 2066.1
910.69 63.54 2042.2
900.38 62.45 2007.4
910.05 62.76 2017.3
900.34 61.74 1984.4
880.12 60.01 1928.8
893.43 60.57 1946.9
912.67 61.53 1977.7
916.05 61.41 1973.9
914.34 60.96 1959.3
912.56 60.50 1944.7
923.51 60.89 1957.2
940.08 61.64 1981.4
942.12 61.44 1974.9
934.61 60.62 1948.6
939.58 60.62 1948.4
953.27 61.17 1966.2
955.20 60.97 1959.8
956.22 60.71 1951.5
954.55 60.29 1937.8
964.36 60.59 1947.5
988.01 61.75 1984.8
988.55 61.46 1975.6
978.26 60.51 1945.0
986.79 60.73 1951.9
998.52 61.13 1965.0
991.65 60.40 1941.6
965.96 58.54 1881.7
972.57 58.65 1885.1
1031.18 61.87 1988.7
1058.79 63.21 2031.8
1036.96 61.60 1980.1
1030.28 60.90 1957.6
1038.45 61.09 1963.5
1047.58 61.32 1971.1
1066.16 62.11 1996.3
1081.06 62.67 2014.4
1072.29 61.86 1988.5
1071.52 61.52 1977.5
1086.47 62.08 1995.6
1084.22 61.66 1982.0
1066.50 60.37 1940.4
1063.11 59.89 1925.2
1119.31 62.76 2017.4
1190.47 66.44 2135.7
1214.22 67.46 2168.3
914.61 67.98 2383.6
928.28 68.53 2403.0
925.00 67.83 2378.6
923.06 67.24 2357.9
951.08 68.83 2413.4
945.43 67.97 2383.4
922.22 65.87 2309.8
906.13 64.31 2254.9
887.92 62.61 2195.4
882.63 61.84 2168.4
877.60 61.10 2142.4
872.44 60.36 2116.4
874.06 60.09 2107.1
871.02 59.51 2086.7
872.13 59.22 2076.5
892.66 60.24 2112.3
900.04 60.37 2116.8
882.66 58.84 2063.4
885.60 58.68 2057.8
912.73 60.12 2108.1
913.74 59.83 2097.9
889.02 57.86 2029.0
888.58 57.50 2016.1
904.30 58.17 2039.8
906.27 57.96 2032.3
902.07 57.36 2011.2
906.82 57.33 2010.2
891.73 56.05 1965.4
868.14 54.26 1902.6
879.31 54.65 1916.2
902.68 55.78 1956.0
910.22 55.94 1961.4
927.50 56.68 1987.5
945.32 57.45 2014.5
923.14 55.79 1956.4
905.43 54.42 1908.4
925.82 55.35 1940.8
935.53 55.63 1950.5
935.73 55.34 1940.5
942.86 55.46 1944.8
948.25 55.48 1945.5
952.76 55.45 1944.4
952.84 55.16 1934.3
965.75 55.62 1950.3
974.70 55.84 1958.1
959.08 54.66 1916.7
967.99 54.89 1924.6
997.68 56.28 1973.4
1004.01 56.35 1975.8
990.80 55.32 1939.9
974.69 54.15 1898.8
993.25 54.90 1925.2
1022.96 56.26 1972.8
1019.13 55.77 1955.7
1025.43 55.84 1958.0
1048.03 56.79 1991.3
1052.07 56.73 1989.2
1055.62 56.64 1986.2
1068.58 57.06 2000.8
1078.28 57.30 2009.2
1100.83 58.22 2041.4
1133.97 59.68 2092.8
1122.39 58.79 2061.5
1093.40 57.00 1998.8
1099.79 57.06 2001.0
1125.51 58.13 2038.2
1122.77 57.71 2023.7
1126.29 57.62 2020.6
1195.53 60.60 2125.0
929.78 62.40 2406.9
908.75 60.58 2336.8
899.43 59.56 2297.5
921.81 60.65 2339.2
946.59 61.87 2386.4
949.34 61.65 2377.7
917.00 59.16 2281.9
883.10 56.61 2183.5
864.59 55.07 2124.1
846.20 53.56 2065.8
859.16 54.04 2084.2
878.33 54.90 2117.4
891.48 55.37 2135.7
908.19 56.06 2162.4
903.61 55.44 2138.2
885.62 54.00 2082.9
883.50 53.55 2065.3
900.27 54.23 2091.9
904.44 54.16 2089.0
881.85 52.49 2024.7
884.25 52.32 2018.2
910.01 53.53 2064.7
918.53 53.72 2071.9
913.65 53.12 2048.9
900.08 52.03 2006.8
894.95 51.43 1983.9
896.32 51.22 1975.6
890.19 50.58 1950.9
891.45 50.36 1942.6
906.92 50.95 1965.2
917.00 51.23 1976.0
936.43 52.02 2006.6
953.44 52.68 2031.8
928.31 51.01 1967.4
914.05 49.95 1926.6
938.79 51.02 1968.0
961.10 51.95 2003.8
974.43 52.39 2020.7
966.46 51.68 1993.5
956.63 50.88 1962.7
968.65 51.25 1976.8
976.75 51.41 1982.9
972.46 50.91 1963.8
962.28 50.12 1933.2
952.43 49.35 1903.4
968.50 49.92 1925.6
999.99 51.28 1978.0
1007.24 51.39 1982.2
1005.40 51.04 1968.5
1000.32 50.52 1948.7
998.35 50.17 1935.1
1008.29 50.41 1944.6
1039.51 51.72 1994.8
1081.61 53.54 2065.3
1082.08 53.30 2056.0
1062.88 52.10 2009.6
1066.47 52.02 2006.6
1079.47 52.40 2021.2
1090.63 52.69 2032.2
1118.92 53.79 2074.9
1132.13 54.17 2089.4
1100.94 52.43 2022.1
1080.98 51.23 1976.1
1098.40 51.81 1998.4
1121.23 52.64 2030.4
1111.67 51.95 2003.7
1123.43 52.25 2015.5
935.59 56.51 2422.0
930.90 55.85 2393.8
937.02 55.85 2393.5
927.00 54.89 2352.3
924.16 54.36 2329.8
934.93 54.64 2341.7
906.61 52.64 2256.1
883.53 50.97 2184.5
875.95 50.21 2152.0
859.51 48.96 2098.3
875.21 49.54 2123.1
899.06 50.57 2167.4
916.17 51.21 2194.9
904.75 50.26 2154.2
872.52 48.18 2064.7
870.41 47.77 2047.1
883.55 48.19 2065.4
889.65 48.23 2067.2
883.84 47.63 2041.4
883.90 47.35 2029.4
905.57 48.23 2066.8
920.94 48.76 2089.5
918.99 48.37 2072.9
925.51 48.43 2075.5
923.45 48.04 2058.9
914.32 47.29 2026.8
912.07 46.91 2010.3
911.40 46.61 1997.4
919.85 46.77 2004.5
935.45 47.30 2027.1
943.99 47.46 2034.1
938.17 46.91 2010.4
930.56 46.27 1983.0
931.78 46.08 1974.7
945.39 46.49 1992.6
971.12 47.50 2035.7
995.73 48.44 2076.0
1007.05 48.73 2088.4
994.43 47.86 2051.2
966.75 46.28 1983.5
962.54 45.84 1964.4
987.85 46.79 2005.4
1000.90 47.16 2021.3
993.07 46.55 1995.0
983.79 45.88 1966.1
986.07 45.75 1960.5
1004.10 46.34 1986.1
1014.08 46.56 1995.6
1015.01 46.37 1987.3
997.17 45.33 1942.5
982.81 44.45 1905.0
1003.74 45.17 1935.8
1047.88 46.92 2010.9
1073.31 47.82 2049.5
1054.19 46.74 2003.0
1056.85 46.63 1998.3
1082.95 47.54 2037.6
1091.77 47.70 2044.2
1101.09 47.87 2051.7
1105.69 47.84 2050.4
1096.46 47.22 2023.5
1091.91 46.80 2005.5
1099.27 46.89 2009.5
1122.06 47.63 2041.5
1147.86 48.50 2078.6
1209.16 50.62 2169.2
1240.26 51.44 2204.5
920.15 49.40 2382.0
916.82 48.90 2357.5
930.14 49.28 2375.9
927.04 48.79 2352.5
914.62 47.82 2305.8
915.33 47.55 2292.6
912.62 47.10 2271.0
913.93 46.87 2259.7
920.47 46.90 2261.4
919.43 46.55 2244.5
910.31 45.80 2208.3
910.98 45.55 2196.1
926.62 46.04 2219.9
913.70 45.12 2175.5
884.24 43.40 2092.4
884.53 43.15 2080.4
891.85 43.24 2084.8
890.48 42.91 2069.1
890.63 42.67 2057.1
895.92 42.66 2057.0
887.15 42.00 2024.8
870.18 40.95 1974.4
886.21 41.46 1999.0
910.90 42.37 2042.7
919.40 42.52 2049.9
920.94 42.34 2041.5
912.52 41.72 2011.3
906.47 41.20 1986.6
915.31 41.37 1994.6
930.47 41.82 2016.3
919.62 41.10 1981.6
895.94 39.82 1919.9
917.43 40.55 1955.1
948.46 41.69 2010.1
955.29 41.76 2013.5
975.47 42.41 2044.9
991.46 42.87 2067.1
991.46 42.64 2056.0
988.37 42.28 2038.7
968.99 41.23 1988.0
951.59 40.28 1942.0
964.92 40.63 1958.9
998.73 41.83 2016.9
1011.39 42.14 2031.8
994.13 41.21 1986.8
989.25 40.79 1966.9
998.28 40.96 1974.6
996.92 40.69 1961.9
1021.87 41.50 2000.8
1030.09 41.62 2006.7
1008.53 40.54 1954.8
1023.11 40.92 1973.1
1034.07 41.16 1984.4
1026.05 40.64 1959.2
1033.75 40.74 1964.2
1063.44 41.70 2010.7
1079.71 42.14 2031.5
1079.10 41.91 2020.5
1088.37 42.06 2028.0
1093.87 42.07 2028.5
1076.51 41.21 1986.7
1062.31 40.47 1951.2
1099.80 41.70 2010.5
1152.93 43.51 2097.6
1183.20 44.44 2142.6
1204.91 45.04 2171.7
1217.00 45.28 2183.3
1213.00 44.93 2166.1
1218.74 44.93 2166.3
938.92 44.11 2430.6
941.50 43.94 2421.0
954.58 43.96 2422.3
941.20 43.06 2372.8
929.46 42.25 2328.0
913.03 41.23 2272.1
910.97 40.88 2252.4
916.36 40.86 2251.3
922.88 40.89 2253.0
920.64 40.53 2233.3
907.57 39.71 2187.9
910.86 39.60 2182.2
936.20 40.45 2229.0
942.27 40.47 2229.7
915.09 39.06 2152.2
891.89 37.84 2084.9
895.66 37.77 2081.1
900.21 37.73 2079.2
899.55 37.48 2065.3
885.18 36.66 2020.3
878.14 35.95 1980.8
917.04 37.32 2056.5
939.90 38.03 2095.6
937.01 37.70 2077.1
923.72 36.95 2035.9
920.62 36.62 2017.6
934.95 36.98 2037.4
940.14 36.97 2037.2
920.08 35.98 1982.6
905.15 35.01 1928.9
945.51 36.37 2003.8
960.47 36.74 2024.4
944.51 35.93 1980.0
923.18 34.93 1924.8
949.38 35.73 1968.8
972.27 36.40 2005.4
987.86 36.78 2026.8
1003.98 37.18 2048.9
988.38 36.41 2006.5
993.89 36.43 2007.1
1024.35 37.35 2057.8
1021.46 37.05 2041.4
983.90 35.50 1956.2
959.07 34.43 1897.1
981.89 34.89 1922.5
1035.61 36.61 2017.4
1062.21 37.36 2058.8
1058.13 37.03 2040.7
1047.97 36.50 2011.0
1060.41 36.75 2024.8
1093.40 37.70 2077.5
1098.55 37.70 2077.1
1088.67 37.17 2048.4
1070.67 36.38 2004.7
1061.94 35.91 1978.8
1083.95 36.48 2010.1
1082.26 36.25 1997.3
1074.31 35.81 1973.2
1121.43 37.20 2050.0
1149.12 37.94 2090.7
1146.99 37.69 2077.0
1199.13 39.22 2161.3
1221.36 39.58 2181.0
1206.04 38.90 2143.7
1240.76 39.84 2195.3
963.73 37.79 2429.6
954.33 37.18 2390.3
916.05 35.46 2279.6
891.89 34.30 2205.2
906.97 34.66 2228.2
924.43 35.10 2256.7
929.05 35.06 2253.8
920.63 34.52 2219.4
916.29 34.15 2195.2
934.30 34.60 2224.5
947.75 34.89 2242.7
926.47 33.90 2179.0
898.60 32.68 2100.6
898.06 32.46 2086.7
912.16 32.77 2106.8
921.54 32.91 2115.8
912.10 32.38 2081.7
896.46 31.64 2034.0
910.59 31.95 2054.0
952.91 33.24 2136.9
956.71 33.18 2133.0
933.35 32.18 2069.0
936.14 32.10 2063.3
951.37 32.43 2085.0
957.92 32.47 2087.5
955.68 32.21 2070.9
957.15 32.08 2062.5
948.44 31.61 2032.4
935.34 31.01 1993.2
947.68 31.24 2008.4
955.79 31.34 2014.5
929.91 30.32 1949.3
933.34 30.11 1935.5
971.00 31.15 2002.8
998.85 31.88 2049.3
1020.30 32.39 2082.2
1008.74 31.85 2047.8
1004.57 31.56 2028.7
1023.49 31.98 2056.1
1042.08 32.40 2082.6
1024.82 31.70 2037.6
1003.77 30.89 1985.5
1007.86 30.85 1983.4
1013.31 30.86 1984.0
1051.17 31.85 2047.7
1076.46 32.46 2086.5
1067.37 32.02 2058.5
1075.73 32.11 2064.3
1107.77 32.90 2115.3
1111.13 32.84 2111.2
1085.49 31.93 2052.4
1092.46 31.97 2055.5
1089.54 31.73 2040.1
1086.56 31.49 2024.6
1117.68 32.24 2072.6
1141.37 32.77 2106.4
1160.88 33.17 2132.2
1170.90 33.30 2140.4
1155.42 32.70 2102.2
1146.55 32.30 2076.2
1196.75 33.55 2157.0
1232.07 34.07 2190.0
948.47 31.41 2422.8
937.05 30.82 2377.8
936.48 30.60 2360.9
953.62 30.96 2388.5
939.57 30.31 2338.1
902.79 28.94 2232.2
906.63 28.87 2227.4
906.27 28.68 2212.4
893.64 28.10 2167.9
909.93 28.44 2193.6
929.80 28.88 2227.6
923.48 28.50 2198.8
912.75 28.00 2159.9
912.02 27.81 2145.0
904.93 27.42 2115.4
894.14 26.93 2077.6
899.87 26.94 2078.4
917.98 27.32 2107.6
916.14 27.10 2090.9
908.59 26.72 2061.5
931.70 27.24 2101.6
951.72 27.67 2134.3
931.77 26.93 2077.5
923.09 26.53 2046.3
941.96 26.91 2076.1
947.66 26.92 2076.9
945.02 26.70 2059.4
944.81 26.54 2047.4
949.61 26.53 2046.2
961.15 26.70 2059.6
968.08 26.74 2063.0
972.03 26.70 2060.0
970.82 26.53 2046.2
969.55 26.35 2032.4
971.67 26.26 2025.9
965.51 25.95 2002.2
967.53 25.87 1995.7
992.75 26.40 2036.8
1011.53 26.76 2064.3
1010.09 26.58 2050.6
1015.69 26.59 2051.1
1023.97 26.67 2057.1
1031.82 26.73 2062.1
1046.87 26.98 2081.4
1059.74 27.17 2096.2
1062.25 27.10 2090.4
1066.55 27.07 2088.2
1085.45 27.41 2114.5
1090.70 27.40 2114.1
1077.07 26.93 2077.2
1080.38 26.88 2073.2
1098.52 27.19 2097.6
1086.95 26.77 2065.3
1059.35 25.96 2003.0
1060.11 25.86 1994.6
1073.09 26.05 2009.3
1087.06 26.26 2025.6
1130.05 27.16 2095.6
1168.08 27.94 2155.7
1151.35 27.41 2114.7
1121.02 26.56 2049.3
1159.30 27.34 2109.2
1212.32 28.46 2195.3
1205.03 28.15 2171.9
1206.89 28.07 2165.2
954.15 25.61 2470.0
926.01 24.69 2381.2
914.96 24.24 2337.2
908.11 23.90 2304.4
903.69 23.63 2278.2
915.46 23.78 2292.9
941.08 24.29 2341.9
942.56 24.17 2330.5
917.58 23.38 2254.3
887.34 22.46 2166.2
891.00 22.42 2161.4
921.83 23.05 2222.3
934.45 23.22 2238.7
920.02 22.72 2190.5
926.01 22.72 2191.3
941.78 22.97 2215.0
930.12 22.55 2174.3
914.32 22.03 2124.5
916.98 21.96 2117.9
932.37 22.20 2140.7
923.39 21.86 2107.5
907.00 21.34 2057.9
918.75 21.49 2072.4
926.09 21.54 2076.8
924.84 21.38 2062.0
935.45 21.50 2073.7
964.70 22.05 2126.3
980.06 22.27 2147.9
972.15 21.97 2118.5
967.88 21.75 2097.3
955.10 21.34 2058.1
948.49 21.08 2032.5
956.63 21.14 2038.6
961.39 21.13 2037.5
976.42 21.34 2058.0
991.53 21.55 2078.5
1000.24 21.63 2085.4
1000.28 21.51 2074.3
980.21 20.97 2021.8
984.88 20.95 2020.7
1007.15 21.32 2055.4
1010.12 21.27 2050.6
1032.14 21.62 2084.3
1057.86 22.04 2125.2
1026.92 21.28 2052.3
1001.51 20.65 1991.2
1043.52 21.41 2064.1
1076.32 21.97 2118.1
1067.03 21.67 2089.2
1073.15 21.68 2090.5
1076.97 21.65 2087.5
1064.67 21.29 2053.3
1067.01 21.23 2047.6
1084.17 21.47 2070.2
1101.88 21.71 2093.6
1105.19 21.67 2089.6
1083.60 21.14 2038.8
1070.76 20.79 2004.9
1078.11 20.83 2008.9
1115.84 21.46 2069.2
1146.19 21.94 2115.3
1119.35 21.32 2055.9
1122.97 21.29 2052.8
1196.90 22.58 2177.6
1195.84 22.35 2155.4
1201.08 22.35 2154.8
951.76 19.04 2447.4
950.34 18.88 2427.5
935.99 18.47 2375.2
923.25 18.10 2327.5
906.58 17.66 2270.6
905.31 17.52 2252.8
920.83 17.71 2276.8
910.06 17.39 2235.8
910.48 17.29 2222.7
942.08 17.78 2285.4
939.48 17.62 2264.8
917.90 17.10 2199.1
912.68 16.90 2173.1
928.36 17.09 2196.8
957.84 17.52 2252.8
958.45 17.43 2240.5
949.92 17.17 2207.2
960.70 17.26 2218.9
951.56 16.99 2184.7
915.38 16.25 2089.2
904.59 15.96 2052.4
922.82 16.19 2081.6
925.29 16.14 2075.0
919.54 15.95 2050.2
922.72 15.91 2045.4
946.96 16.23 2087.2
975.51 16.63 2137.9
978.43 16.58 2132.2
971.67 16.38 2105.6
955.12 16.01 2058.1
948.09 15.80 2031.6
957.08 15.86 2039.5
964.39 15.90 2043.8
982.44 16.11 2070.7
993.70 16.20 2083.1
998.09 16.19 2081.0
1019.41 16.44 2114.0
1018.18 16.33 2100.1
1001.99 15.99 2055.8
1005.85 15.97 2052.8
1011.02 15.96 2052.4
1035.26 16.26 2090.7
1077.49 16.84 2164.6
1062.29 16.51 2123.0
1007.82 15.58 2003.8
1024.59 15.76 2026.7
1061.84 16.25 2089.6
1057.95 16.11 2071.4
1063.58 16.11 2071.9
1069.20 16.12 2072.4
1065.61 15.98 2055.1
1075.35 16.05 2063.6
1068.88 15.87 2041.0
1065.11 15.74 2023.8
1095.86 16.12 2072.0
1102.86 16.14 2075.1
1116.94 16.27 2091.4
1150.95 16.68 2144.6
1143.87 16.50 2121.2
1130.02 16.22 2085.5
1138.97 16.27 2092.0
1183.46 16.83 2163.4
1199.32 16.89 2171.8
1215.27 17.04 2190.4
947.53 12.80 2469.4
946.97 12.71 2451.4
945.25 12.60 2430.6
970.04 12.85 2477.9
953.49 12.46 2403.8
922.53 11.98 2310.6
910.54 11.75 2265.9
914.84 11.73 2262.0
921.01 11.73 2262.7
937.78 11.87 2289.3
945.91 11.90 2294.7
919.57 11.49 2216.8
916.76 11.39 2196.3
931.67 11.50 2218.3
935.38 11.48 2213.4
953.16 11.62 2241.8
959.65 11.63 2243.3
955.47 11.51 2220.1
935.28 11.20 2160.2
896.47 10.67 2058.2
912.58 10.80 2082.8
956.23 11.25 2169.6
976.74 11.42 2203.2
978.25 11.37 2193.7
953.93 11.03 2126.8
940.42 10.81 2084.7
947.80 10.83 2089.0
960.17 10.91 2104.3
959.25 10.84 2090.4
947.38 10.64 2052.9
955.13 10.67 2058.1
972.63 10.81 2084.2
974.51 10.77 2076.7
976.78 10.73 2070.1
984.59 10.76 2075.3
986.39 10.72 2067.8
987.73 10.68 2059.4
1008.57 10.84 2091.5
1020.38 10.91 2104.7
1015.15 10.80 2082.8
1014.66 10.74 2070.7
1013.68 10.67 2057.9
1007.32 10.55 2034.2
1019.57 10.62 2048.2
1054.70 10.93 2107.8
1052.32 10.85 2092.2
1021.45 10.48 2020.5
1009.31 10.30 1986.2
1037.05 10.53 2030.5
1079.12 10.90 2102.2
1087.55 10.93 2108.0
1087.26 10.87 2096.9
1084.60 10.79 2081.3
1063.79 10.53 2031.3
1044.44 10.24 1974.8
1075.19 10.49 2023.0
1115.07 10.83 2087.9
1161.84 11.23 2164.9
1168.56 11.24 2167.0
1155.76 11.06 2133.0
1168.15 11.13 2145.6
1187.31 11.25 2170.4
1193.08 11.26 2170.7
1196.43 11.23 2166.6
953.98 6.45 2486.3
939.42 6.30 2431.9
920.25 6.13 2366.4
927.76 6.14 2369.9
951.41 6.26 2414.3
936.17 6.12 2360.1
923.28 6.00 2312.5
927.70 5.99 2308.6
940.72 6.03 2326.0
955.32 6.08 2347.0
935.90 5.92 2284.7
904.76 5.69 2194.8
914.59 5.72 2204.8
949.51 5.90 2274.8
953.36 5.88 2269.9
944.74 5.80 2235.6
941.04 5.74 2213.2
923.87 5.60 2159.7
949.54 5.72 2206.3
959.53 5.75 2216.2
914.84 5.45 2100.4
929.45 5.50 2121.3
967.53 5.69 2195.2
978.77 5.72 2207.8
1012.47 5.89 2270.5
1018.19 5.89 2270.1
981.55 5.64 2175.8
968.05 5.53 2133.7
974.71 5.54 2136.1
967.60 5.47 2108.6
987.20 5.55 2139.2
1016.19 5.65 2177.6
991.93 5.48 2113.8
987.03 5.42 2091.8
990.17 5.41 2087.0
992.43 5.39 2080.4
992.92 5.37 2070.2
998.15 5.37 2069.9
993.34 5.31 2048.9
1000.70 5.32 2053.1
1011.15 5.35 2063.6
1022.09 5.38 2074.9
1026.85 5.38 2073.7
1019.58 5.31 2048.3
1037.25 5.37 2073.0
1071.20 5.52 2129.8
1074.70 5.51 2125.8
1045.10 5.33 2056.7
1053.43 5.35 2062.6
1110.18 5.61 2162.7
1135.70 5.71 2201.3
1094.17 5.47 2110.2
1050.88 5.23 2016.6
1077.25 5.33 2057.0
1096.80 5.40 2084.0
1078.58 5.29 2039.3
1088.81 5.31 2048.6
1096.71 5.32 2053.5
1110.30 5.36 2068.9
1142.94 5.49 2119.5
1160.53 5.55 2141.8
1160.99 5.53 2132.4
1163.81 5.52 2127.5
1192.61 5.63 2169.8
947.07 -0.00 2435.3
927.03 -0.00 2368.0
926.11 -0.00 2350.1
906.31 -0.00 2284.8
889.17 -0.00 2227.1
920.25 -0.00 2290.0
959.85 -0.00 2373.2
977.57 -0.00 2401.7
963.57 -0.00 2352.3
921.91 -0.00 2236.4
919.96 -0.00 2217.8
941.81 -0.00 2256.3
930.52 -0.00 2215.5
928.39 -0.00 2196.9
930.87 -0.00 2189.3
923.87 -0.00 2159.7
960.22 -0.00 2231.1
998.47 -0.00 2306.1
979.54 -0.00 2248.9
953.13 -0.00 2175.4
950.59 -0.00 2156.8
965.40 -0.00 2177.6
1005.54 -0.00 2255.0
1031.69 -0.00 2300.2
1012.39 -0.00 2244.2
980.03 -0.00 2160.1
968.07 -0.00 2121.6
996.80 -0.00 2172.2
1051.31 -0.00 2278.1
1044.39 -0.00 2250.5
987.86 -0.00 2116.8
978.34 -0.00 2084.9
990.87 -0.00 2100.0
1008.18 -0.00 2125.0
1022.57 -0.00 2143.6
1009.36 -0.00 2104.5
998.59 -0.00 2070.8
1000.32 -0.00 2063.3
1012.53 -0.00 2077.4
1023.04 -0.00 2087.8
1032.70 -0.00 2096.5
1039.73 -0.00 2099.7
1033.84 -0.00 2076.9
1045.76 -0.00 2090.0
1074.35 -0.00 2136.0
1095.45 -0.00 2166.8
1080.44 -0.00 2126.2
1067.08 -0.00 2089.3
1100.14 -0.00 2143.1
1128.37 -0.00 2187.1
1090.49 -0.00 2103.1
1045.80 -0.00 2006.9
1069.37 -0.00 2041.9
1108.44 -0.00 2106.1
1111.31 -0.00 2101.2
1111.34 -0.00 2091.0
1108.02 -0.00 2074.7
1094.23 -0.00 2038.9
1098.33 -0.00 2036.7
1118.13 -0.00 2063.5
1120.83 -0.00 2058.7
1120.62 -0.00 2048.5
1150.23 -0.00 2092.7
1209.50 -0.00 2190.2
952.63 -6.48 2499.6
959.36 -6.48 2500.3
949.14 -6.37 2457.0
942.36 -6.28 2423.2
944.53 -6.26 2412.7
950.68 -6.25 2412.4
936.17 -6.12 2360.1
890.28 -5.78 2229.8
895.63 -5.78 2228.8
924.97 -5.93 2287.0
931.19 -5.93 2287.7
940.44 -5.95 2295.8
921.52 -5.80 2235.5
922.64 -5.77 2224.2
946.81 -5.88 2268.3
930.52 -5.74 2215.5
922.55 -5.66 2183.1
946.12 -5.77 2225.2
960.44 -5.82 2245.2
972.87 -5.86 2260.5
987.74 -5.91 2281.3
1005.09 -5.98 2307.6
1000.60 -5.89 2270.3
1004.31 -5.87 2265.4
1021.83 -5.94 2291.5
1024.73 -5.92 2284.7
1035.42 -5.95 2295.3
1030.85 -5.89 2272.1
1025.77 -5.83 2248.0
1059.36 -5.99 2308.5
1061.78 -5.97 2300.8
1001.02 -5.59 2157.0
982.36 -5.46 2105.1
1014.87 -5.61 2162.7
1024.15 -5.63 2170.5
1039.47 -5.68 2190.9
1038.50 -5.64 2177.0
1008.93 -5.45 2103.6
1008.57 -5.42 2091.5
1021.26 -5.46 2106.5
1001.14 -5.33 2054.0
1017.23 -5.35 2065.0
1047.27 -5.48 2114.9
1044.53 -5.44 2098.4
1059.63 -5.49 2117.7
1075.69 -5.54 2138.7
1082.82 -5.55 2141.8
1079.53 -5.51 2124.4
1076.63 -5.47 2108.0
1091.00 -5.51 2125.3
1100.40 -5.53 2132.9
1117.65 -5.59 2155.5
1128.51 -5.61 2165.6
1109.73 -5.49 2119.0
1104.25 -5.44 2098.2
1108.97 -5.44 2096.8
1112.74 -5.43 2093.7
1128.27 -5.48 2112.6
1133.00 -5.47 2111.2
1137.24 -5.47 2108.9
1158.62 -5.54 2138.3
1153.34 -5.49 2118.4
1143.65 -5.42 2090.6
1168.53 -5.51 2126.0
978.89 -13.69 2640.4
982.45 -13.55 2613.4
933.91 -12.62 2433.9
931.48 -12.50 2411.3
932.93 -12.44 2399.0
920.46 -12.19 2351.2
912.91 -12.01 2316.6
940.22 -12.29 2370.3
935.88 -12.15 2344.0
901.22 -11.63 2242.7
892.35 -11.44 2206.4
895.37 -11.41 2199.7
900.26 -11.40 2197.7
900.56 -11.33 2184.6
922.25 -11.53 2223.3
949.12 -11.79 2273.8
934.38 -11.54 2224.7
918.65 -11.27 2173.8
935.16 -11.40 2199.4
951.39 -11.53 2224.0
967.72 -11.66 2248.6
1002.03 -12.00 2314.4
1007.85 -11.86 2286.7
1006.32 -11.77 2269.9
1019.79 -11.86 2286.9
1022.68 -11.82 2280.1
1034.58 -11.89 2293.4
1032.91 -11.80 2276.6
1031.15 -11.72 2259.8
1039.33 -11.74 2264.9
1015.26 -11.41 2200.0
1010.70 -11.29 2177.9
1053.40 -11.70 2257.3
1038.23 -11.47 2212.5
997.69 -10.96 2114.4
1038.17 -11.35 2188.2
1058.30 -11.50 2218.5
1021.46 -11.04 2129.7
1015.52 -10.92 2105.9
1036.95 -11.09 2138.9
1023.91 -10.89 2100.7
992.66 -10.50 2025.8
1018.10 -10.72 2066.8
1070.33 -11.21 2161.5
1088.64 -11.34 2187.0
1081.10 -11.20 2160.6
1076.13 -11.09 2139.6
1084.16 -11.12 2144.5
1081.79 -11.04 2128.9
1071.16 -10.87 2097.3
1077.75 -10.89 2099.5
1097.64 -11.03 2127.5
1127.30 -11.27 2174.1
1154.85 -11.49 2216.1
1153.79 -11.42 2203.1
1126.13 -11.09 2139.7
1110.36 -10.89 2099.4
1125.87 -10.98 2118.4
1154.18 -11.21 2161.1
1167.51 -11.28 2175.5
1184.70 -11.39 2196.9
990.84 -20.36 2617.7
962.56 -19.51 2508.6
952.01 -19.17 2464.4
946.32 -18.93 2433.4
925.91 -18.40 2365.2
915.09 -18.06 2322.1
941.31 -18.46 2373.1
957.37 -18.65 2397.9
943.34 -18.26 2347.5
932.08 -17.92 2304.6
933.06 -17.83 2292.3
921.09 -17.49 2248.6
905.12 -17.08 2195.7
929.13 -17.42 2239.9
961.43 -17.91 2303.3
940.56 -17.42 2239.4
916.69 -16.87 2169.2
934.76 -17.10 2198.5
951.38 -17.30 2224.0
960.99 -17.37 2232.9
988.51 -17.76 2283.1
997.35 -17.60 2262.9
1001.85 -17.58 2259.8
1016.11 -17.72 2278.6
1018.57 -17.66 2271.0
1034.16 -17.83 2292.5
1038.26 -17.80 2288.4
991.77 -16.81 2161.2
996.39 -16.79 2159.1
1042.81 -17.38 2234.6
1002.96 -16.62 2137.3
972.07 -16.02 2060.1
1023.58 -16.78 2157.4
1076.79 -17.56 2257.3
1068.58 -17.33 2227.9
1060.24 -17.10 2198.7
1078.82 -17.31 2225.2
1066.83 -17.02 2188.8
1034.89 -16.43 2112.0
1046.37 -16.52 2124.2
1086.29 -17.06 2193.7
1088.63 -17.01 2187.0
1064.97 -16.55 2128.4
1079.26 -16.69 2145.8
1106.26 -17.02 2188.2
1092.65 -16.72 2150.3
1070.24 -16.30 2095.5
1049.42 -15.90 2044.3
1088.16 -16.32 2098.6
1132.65 -16.91 2173.5
1160.27 -17.23 2215.5
1160.11 -17.14 2204.3
1151.02 -16.93 2176.3
1174.67 -17.19 2210.2
1167.35 -17.00 2185.7
1139.60 -16.52 2123.5
1156.68 -16.68 2144.9
968.34 -26.71 2575.9
959.00 -26.10 2516.3
974.72 -26.34 2540.3
958.47 -25.73 2481.2
949.20 -25.31 2440.8
956.88 -25.35 2444.3
970.80 -25.55 2463.5
971.90 -25.41 2450.2
964.40 -25.05 2415.5
961.22 -24.81 2392.0
960.93 -24.64 2375.9
959.05 -24.43 2356.2
944.19 -23.90 2305.0
927.58 -23.34 2250.2
953.25 -23.83 2298.0
1008.02 -25.04 2414.9
1011.79 -24.98 2409.0
972.72 -23.87 2301.8
976.21 -23.81 2296.0
977.71 -23.70 2285.5
970.45 -23.38 2254.9
961.87 -23.04 2221.6
962.72 -22.92 2210.3
1058.93 -24.07 2320.7
1021.36 -23.08 2225.7
1026.72 -22.69 2188.0
1050.57 -23.09 2226.5
1056.14 -23.09 2226.1
1066.01 -23.17 2234.6
1083.26 -23.42 2258.5
1100.61 -23.67 2282.4
1108.46 -23.71 2286.4
1085.21 -23.09 2226.5
1052.03 -22.27 2147.0
1062.26 -22.36 2156.5
1069.41 -22.40 2159.6
1036.92 -21.60 2083.1
1038.11 -21.52 2074.7
1079.69 -22.26 2146.7
1121.57 -23.01 2218.5
1122.07 -22.90 2208.2
1117.52 -22.69 2188.0
1115.62 -22.54 2173.3
1081.56 -21.74 2096.3
1099.65 -21.99 2120.8
1127.55 -22.44 2163.7
1137.52 -22.53 2172.1
1143.79 -22.54 2173.3
1138.85 -22.33 2153.3
1151.65 -22.47 2166.9
1130.11 -21.94 2116.0
1103.17 -21.32 2055.6
1121.54 -21.57 2079.8
1181.92 -22.62 2181.3
981.34 -34.07 2628.6
948.26 -32.70 2522.5
961.47 -32.70 2522.8
976.48 -32.99 2544.9
959.89 -32.21 2484.8
943.74 -31.46 2426.8
948.11 -31.39 2421.8
947.68 -31.17 2404.8
934.26 -30.53 2355.3
948.43 -30.79 2375.5
966.04 -31.16 2404.0
971.77 -31.15 2402.7
977.12 -31.12 2400.6
973.73 -30.81 2377.1
970.24 -30.51 2353.7
970.85 -30.34 2340.4
1002.60 -31.14 2402.0
1018.58 -30.87 2381.1
998.79 -29.90 2306.9
984.26 -29.29 2259.8
1078.00 -31.52 2431.6
1078.52 -30.99 2390.8
1086.14 -31.03 2393.9
1102.49 -31.32 2416.2
1102.66 -31.15 2402.9
1065.06 -29.92 2307.9
1048.94 -29.30 2260.3
1058.41 -29.40 2268.0
1082.35 -29.90 2306.5
1095.35 -30.09 2321.4
1091.26 -29.82 2300.1
1079.33 -29.33 2262.6
1076.75 -29.10 2245.0
1076.70 -28.94 2232.8
1068.30 -28.56 2203.5
1052.33 -27.99 2159.0
1027.37 -27.18 2096.7
1035.28 -27.24 2101.7
1037.88 -27.17 2095.9
1035.55 -26.97 2080.4
1067.16 -27.65 2132.7
1076.97 -27.76 2141.3
1089.06 -27.92 2154.2
1117.06 -28.50 2198.3
1140.69 -28.95 2233.4
1139.79 -28.78 2220.4
1106.29 -27.80 2144.3
1091.80 -27.30 2105.6
1086.39 -27.02 2084.8
1111.05 -27.50 2121.5
1133.52 -27.92 2153.8
1121.99 -27.50 2121.4
1130.04 -27.56 2126.2
1164.00 -28.25 2179.5
1195.35 -28.87 2227.4
1185.58 -28.50 2198.5
1008.69 -42.62 2739.9
1011.47 -42.44 2728.2
982.71 -40.66 2614.1
972.00 -39.95 2567.9
996.33 -40.67 2614.3
1007.97 -40.86 2627.0
972.47 -39.16 2517.4
940.09 -37.60 2417.4
934.95 -37.15 2388.2
921.99 -36.39 2339.6
928.70 -36.42 2341.3
961.38 -37.46 2407.9
975.33 -37.75 2427.1
977.37 -37.59 2416.6
972.19 -37.15 2388.5
959.68 -36.44 2342.8
974.02 -36.76 2362.9
993.81 -37.27 2395.8
987.93 -36.82 2366.8
1007.31 -37.08 2383.6
1036.02 -37.90 2436.6
1050.41 -37.74 2426.1
1040.93 -37.18 2389.9
1076.71 -37.56 2414.5
1073.33 -37.23 2393.1
1087.12 -37.49 2409.9
1081.56 -37.08 2383.9
1087.93 -37.09 2384.3
1103.16 -37.19 2390.5
1080.06 -36.20 2327.3
1082.06 -36.07 2318.7
1092.51 -36.22 2328.2
1093.18 -36.04 2316.8
1095.94 -35.93 2309.9
1088.77 -35.50 2282.4
1084.93 -35.19 2262.0
1083.61 -34.96 2247.1
1057.36 -33.93 2181.0
1024.26 -32.69 2101.4
1028.22 -32.64 2098.4
1067.06 -33.70 2166.2
1087.10 -34.15 2195.3
1100.58 -34.39 2211.0
1100.69 -34.22 2199.8
1079.64 -33.39 2146.6
1081.81 -33.29 2139.9
1098.46 -33.63 2161.7
1103.81 -33.62 2161.2
1085.42 -32.89 2114.5
1087.46 -32.79 2107.8
1110.64 -33.32 2141.9
1128.87 -33.70 2166.3
1176.89 -34.96 2247.2
1177.12 -34.62 2225.6
1170.36 -34.25 2202.1
1187.99 -34.60 2224.4
1000.67 -49.68 2737.4
978.26 -48.22 2657.2
974.93 -47.72 2629.7
1004.00 -48.81 2689.3
1001.67 -48.36 2664.5
992.85 -47.60 2623.0
1003.06 -47.12 2596.6
976.65 -45.58 2511.4
976.47 -45.27 2494.3
984.64 -45.35 2498.6
991.00 -45.05 2482.1
951.81 -42.98 2368.5
961.21 -43.13 2376.6
963.86 -42.97 2368.0
953.96 -42.26 2328.8
972.46 -42.81 2359.1
998.37 -43.68 2406.8
998.29 -43.40 2391.7
996.21 -43.05 2371.9
1028.29 -44.16 2433.3
1048.89 -44.77 2466.9
1050.37 -44.56 2455.4
1056.93 -44.57 2455.9
1133.85 -45.88 2528.0
1086.23 -43.20 2380.5
1090.91 -43.14 2377.3
1107.73 -43.56 2400.4
1109.90 -43.40 2391.7
1095.97 -42.62 2348.5
1092.04 -42.23 2327.2
1099.54 -42.29 2330.3
1108.33 -42.40 2336.1
1121.02 -42.65 2350.0
1132.22 -42.61 2347.9
1104.00 -41.33 2277.2
1067.59 -39.75 2190.4
1067.34 -39.53 2178.2
1092.21 -40.24 2217.3
1096.38 -40.18 2214.1
1091.63 -39.80 2193.0
1070.68 -38.83 2139.8
1063.42 -38.37 2114.3
1081.78 -38.83 2139.8
1114.73 -39.81 2193.7
1135.16 -40.34 2222.6
1130.59 -39.97 2202.4
1149.77 -40.44 2228.6
1152.48 -40.34 2222.6
1147.78 -39.97 2202.6
1182.88 -40.99 2258.7
1183.27 -40.80 2248.3
1177.08 -40.39 2225.6
1183.46 -40.41 2226.7
1175.71 -39.95 2201.4
979.60 -55.19 2660.9
971.07 -54.33 2619.3
990.67 -55.04 2653.6
992.12 -54.74 2639.1
988.20 -54.15 2610.7
1000.17 -54.43 2624.3
1000.01 -54.05 2606.2
990.76 -53.20 2564.8
986.76 -52.63 2537.4
984.81 -52.18 2515.6
993.02 -52.26 2519.9
995.72 -52.06 2510.2
951.66 -49.44 2383.6
945.05 -48.46 2336.7
977.01 -49.78 2400.3
999.78 -50.62 2440.7
1011.28 -50.88 2453.2
1030.89 -51.54 2485.2
1031.37 -51.25 2470.9
1029.85 -50.86 2452.0
1027.46 -50.43 2431.3
1012.07 -49.37 2380.3
1081.39 -52.11 2512.7
1095.61 -52.48 2530.5
1119.62 -52.38 2525.4
1131.59 -52.63 2537.6
1142.39 -52.83 2547.0
1112.71 -50.01 2411.2
1114.51 -49.26 2375.0
1099.92 -48.35 2331.1
1114.29 -48.71 2348.6
1134.75 -49.34 2378.7
1130.25 -48.88 2356.5
1106.98 -47.61 2295.6
1102.21 -47.15 2273.5
1089.89 -46.38 2236.1
1074.77 -45.49 2193.4
1082.88 -45.60 2198.3
1091.46 -45.72 2204.1
1090.69 -45.45 2191.1
1064.37 -44.12 2127.2
1053.05 -43.42 2093.7
1083.99 -44.47 2144.2
1130.08 -46.13 2223.9
1141.02 -46.34 2234.1
1125.98 -45.49 2193.5
1128.64 -45.37 2187.6
1114.24 -44.57 2148.9
1108.92 -44.14 2128.0
1145.26 -45.36 2186.8
987.01 -63.91 2738.9
996.12 -63.58 2724.9
974.02 -61.73 2645.7
970.67 -61.09 2618.2
982.92 -61.43 2632.8
976.95 -60.64 2598.8
980.01 -60.41 2589.1
997.62 -61.08 2617.7
981.34 -59.68 2557.5
955.05 -57.69 2472.3
942.86 -56.57 2424.5
933.37 -55.63 2384.2
936.53 -55.45 2376.5
932.27 -54.84 2350.3
946.13 -54.58 2339.3
976.21 -55.96 2398.3
1006.55 -57.34 2457.2
1028.00 -58.19 2493.8
1054.20 -59.30 2541.4
1057.51 -59.12 2533.5
1048.38 -58.24 2496.2
1039.09 -57.37 2458.8
1023.76 -56.18 2407.8
1059.31 -57.78 2476.3
1091.21 -59.16 2535.5
1096.75 -59.11 2533.1
1103.07 -59.09 2532.6
1101.77 -58.67 2514.6
1146.20 -59.98 2570.4
1117.38 -58.13 2491.3
1142.07 -59.07 2531.7
1106.79 -55.96 2398.3
1063.51 -53.47 2291.7
1083.19 -54.16 2321.1
1073.26 -53.37 2287.1
1070.86 -52.95 2269.5
1097.52 -53.98 2313.3
1119.53 -54.17 2321.6
1089.07 -52.42 2246.4
1098.60 -52.59 2254.0
1106.40 -52.69 2258.0
1123.48 -53.22 2280.7
1141.10 -53.77 2304.4
1145.44 -53.69 2301.1
1125.61 -52.49 2249.6
1078.61 -50.04 2144.5
1075.37 -49.63 2127.1
1105.57 -50.77 2175.7
1101.86 -50.34 2157.4
1097.62 -49.89 2138.2
1112.08 -50.30 2155.5
1118.33 -50.32 2156.8
1137.05 -50.91 2182.0
1161.91 -51.77 2218.6
1183.35 -51.45 2205.0
981.34 -71.11 2742.9
995.09 -71.59 2761.3
998.69 -71.33 2751.5
995.03 -70.57 2722.0
977.07 -68.81 2654.0
951.92 -65.65 2532.2
977.83 -66.97 2583.3
990.09 -67.35 2597.9
967.32 -65.36 2521.0
979.85 -65.76 2536.5
1007.31 -67.15 2590.2
956.64 -63.35 2443.7
934.06 -61.05 2354.8
946.00 -61.43 2369.4
951.29 -61.37 2367.3
968.94 -62.11 2395.7
992.74 -63.23 2438.9
1015.97 -64.30 2480.2
1030.61 -64.82 2500.1
1044.57 -65.29 2518.2
1060.15 -65.85 2539.8
1063.04 -65.62 2531.0
1078.34 -66.16 2551.7
1098.66 -66.18 2552.8
1107.32 -65.52 2527.3
1109.59 -65.27 2517.6
1150.70 -67.29 2595.6
1134.74 -65.97 2544.7
1118.96 -64.68 2494.8
1158.05 -66.55 2567.1
1062.61 -59.36 2289.7
1067.49 -59.31 2287.5
1075.33 -59.41 2291.5
1090.85 -59.94 2311.9
1103.46 -60.30 2325.8
1138.51 -61.88 2386.6
1100.79 -58.87 2270.5
1089.78 -57.97 2235.9
1097.10 -58.05 2239.0
1113.26 -58.59 2260.0
1141.48 -59.76 2305.2
1157.86 -60.31 2326.1
1155.08 -59.85 2308.4
1122.13 -57.84 2231.0
1099.67 -56.39 2175.2
1111.86 -56.73 2188.1
1111.81 -56.44 2176.9
1109.89 -56.05 2162.1
1133.57 -56.96 2197.2
1148.65 -57.43 2215.2
1154.55 -57.44 2215.6
1166.48 -57.75 2227.4
1185.91 -58.42 2253.3
977.48 -76.80 2693.1
996.00 -77.70 2724.6
1004.64 -77.82 2728.9
1001.13 -77.01 2700.4
972.67 -74.30 2605.4
974.37 -73.92 2591.9
971.76 -73.21 2567.3
959.06 -71.77 2516.5
959.74 -71.33 2501.2
995.28 -73.48 2576.5
978.82 -71.30 2500.3
939.16 -67.52 2367.6
965.22 -68.94 2417.5
984.04 -69.83 2448.8
1004.49 -70.83 2483.6
1032.25 -72.32 2536.0
1030.68 -71.76 2516.1
1015.69 -70.27 2463.9
1039.15 -71.44 2505.1
1061.62 -72.53 2543.4
1056.39 -71.73 2515.2
1063.87 -71.80 2517.5
1083.88 -72.70 2549.2
1144.60 -74.06 2597.0
1112.55 -71.57 2509.5
1134.67 -72.57 2544.5
1157.76 -73.61 2581.3
1130.85 -71.49 2506.8
1120.13 -70.41 2468.9
1150.75 -71.92 2521.9
1144.48 -71.13 2494.0
1102.48 -68.13 2389.0
1076.86 -66.18 2320.4
1085.18 -66.32 2325.4
1098.62 -66.77 2341.2
1109.56 -67.06 2351.5
1116.26 -67.10 2352.8
1116.06 -66.72 2339.6
1125.32 -66.91 2346.2
1105.07 -65.35 2291.6
1061.04 -62.41 2188.6
1077.02 -63.02 2209.7
1112.87 -64.77 2271.2
1092.44 -63.25 2217.7
1085.97 -62.54 2193.1
1110.13 -63.60 2230.2
1112.96 -63.43 2224.3
1117.12 -63.34 2221.1
1130.73 -63.78 2236.6
1126.74 -63.24 2217.3
1107.66 -61.85 2168.7
1126.26 -62.57 2194.0
1174.30 -64.91 2276.1
1172.05 -64.46 2260.4
1158.65 -63.41 2223.4
1188.22 -64.70 2268.9
982.22 -85.41 2745.3
983.55 -84.30 2709.8
992.50 -84.47 2715.0
995.25 -84.11 2703.4
1015.66 -85.23 2739.5
1011.06 -84.25 2708.2
982.74 -81.33 2614.2
951.88 -78.24 2514.7
962.91 -78.60 2526.6
987.24 -80.05 2572.9
984.05 -79.25 2547.4
978.19 -78.26 2515.4
988.59 -78.56 2525.3
999.39 -78.90 2536.0
984.07 -77.18 2480.8
982.94 -76.59 2461.9
990.31 -76.67 2464.4
1001.80 -77.06 2477.0
1038.59 -79.38 2551.6
1045.39 -79.40 2552.0
1036.14 -77.23 2482.3
1149.98 -82.14 2640.3
1173.78 -83.35 2679.0
1158.63 -81.79 2628.8
1134.35 -79.60 2558.7
1168.79 -81.54 2621.1
1181.82 -81.98 2634.9
1148.45 -79.20 2545.8
1113.97 -75.52 2427.5
1090.68 -73.12 2350.2
1092.30 -72.82 2340.6
1106.62 -73.37 2358.2
1120.16 -73.86 2374.0
1093.48 -71.70 2304.8
1062.19 -69.27 2226.6
1075.97 -69.79 2243.3
1075.64 -68.66 2206.9
1127.76 -71.60 2301.5
1122.40 -70.89 2278.6
1086.34 -68.25 2193.8
1081.55 -67.60 2172.8
1078.01 -67.03 2154.4
1075.28 -66.51 2137.9
1104.05 -67.94 2183.8
1114.90 -68.26 2194.0
1118.96 -68.16 2190.8
1165.00 -70.61 2269.5
1187.06 -71.58 2300.8
1154.04 -69.24 2225.6
1168.28 -69.75 2241.9
988.79 -92.48 2743.8
990.71 -91.34 2710.2
985.16 -90.19 2676.0
997.87 -90.72 2691.5
1002.94 -90.54 2686.5
984.78 -88.29 2619.6
963.84 -85.82 2546.3
983.84 -87.01 2581.5
987.53 -86.74 2573.7
965.97 -84.28 2500.6
981.38 -85.05 2523.6
1012.20 -87.14 2585.6
1031.54 -87.65 2600.5
1006.96 -85.00 2522.1
990.24 -83.05 2464.2
1001.35 -83.45 2475.9
1038.51 -85.99 2551.4
1029.64 -84.18 2497.8
1067.47 -85.66 2541.6
1142.00 -89.98 2669.6
1121.95 -86.30 2560.7
1125.90 -86.10 2554.6
1124.15 -85.46 2535.7
1164.24 -87.99 2610.8
1182.15 -88.83 2635.7
1155.09 -85.81 2545.9
1091.80 -80.19 2379.2
1145.47 -83.66 2482.2
1156.66 -84.00 2492.4
1140.09 -81.88 2429.6
1124.34 -80.31 2382.8
1070.69 -76.06 2256.7
1089.30 -76.55 2271.1
1087.13 -75.98 2254.4
1080.96 -75.15 2229.6
1104.47 -76.37 2266.0
1138.68 -78.32 2323.8
1144.41 -78.30 2323.2
1117.76 -76.08 2257.3
1105.53 -74.85 2220.9
1094.48 -73.72 2187.3
1091.83 -73.16 2170.8
1122.02 -74.80 2219.4
1137.91 -75.47 2239.3
1149.34 -75.84 2250.3
1157.16 -75.98 2254.2
1135.65 -74.19 2201.2
1146.14 -74.50 2210.4
987.79 -100.21 2760.9
962.96 -96.99 2672.1
962.60 -96.26 2652.1
980.34 -97.34 2681.8
1003.38 -98.93 2725.5
1009.60 -98.84 2723.2
1007.41 -97.94 2698.4
1009.32 -97.45 2684.9
1008.34 -96.69 2663.9
1012.59 -96.44 2656.9
999.98 -94.59 2606.1
959.77 -90.18 2484.5
983.70 -91.20 2512.8
1002.54 -92.34 2544.0
1011.19 -92.53 2549.2
997.62 -90.69 2498.7
998.36 -90.17 2484.4
1032.00 -92.62 2551.6
1055.47 -92.93 2560.4
1033.68 -89.88 2476.4
1173.38 -96.63 2662.3
1141.88 -93.49 2575.7
1152.75 -93.83 2585.1
1160.38 -93.90 2587.1
1152.80 -92.75 2555.5
1185.97 -94.88 2614.0
1171.67 -93.20 2567.8
1149.84 -89.93 2477.7
1142.44 -88.86 2448.1
1135.33 -87.82 2419.4
1114.03 -85.69 2361.0
1098.46 -84.04 2315.3
1119.28 -85.16 2346.3
1120.34 -84.78 2335.8
1090.09 -82.05 2260.6
1098.76 -82.26 2266.4
1133.73 -84.43 2326.0
1154.43 -85.51 2356.0
1146.98 -84.51 2328.5
1140.74 -83.61 2303.7
1149.99 -83.85 2310.2
1131.97 -82.11 2262.3
1120.49 -80.86 2227.8
1143.58 -82.10 2262.0
1154.13 -82.44 2271.3
1154.26 -82.03 2260.0
1149.32 -81.26 2238.9
1165.82 -82.02 2259.7
977.61 -106.26 2732.4
953.73 -102.92 2646.5
956.04 -102.43 2634.0
977.85 -104.03 2675.0
992.59 -104.85 2696.2
990.41 -103.89 2671.4
986.35 -102.74 2642.0
987.43 -102.15 2626.7
997.99 -102.53 2636.6
1013.93 -103.46 2660.5
1016.72 -103.05 2649.8
992.82 -99.95 2570.1
990.84 -97.14 2497.9
986.79 -96.12 2471.6
997.90 -96.57 2483.3
1033.79 -99.40 2556.1
1061.04 -99.47 2557.9
1155.56 -104.42 2685.0
1174.63 -102.44 2634.1
1159.47 -100.53 2585.1
1143.26 -98.56 2534.3
1169.77 -100.27 2578.3
1184.02 -100.91 2594.8
1158.32 -98.16 2524.2
1162.04 -97.93 2518.1
1173.31 -98.32 2528.3
1156.30 -96.36 2477.8
1142.89 -94.71 2435.5
1136.11 -93.64 2407.8
1134.79 -93.02 2391.8
1135.54 -92.57 2380.4
1117.22 -90.59 2329.3
1086.10 -87.59 2252.3
1091.70 -87.57 2251.8
1119.19 -89.30 2296.2
1132.35 -89.87 2310.9
1134.52 -89.57 2303.2
1138.44 -89.41 2299.0
1154.35 -90.18 2319.0
1141.72 -88.73 2281.8
1133.42 -87.64 2253.5
1159.73 -89.21 2294.0
1164.91 -89.15 2292.5
1156.44 -88.05 2264.2
1165.20 -88.27 2269.9
999.41 -112.61 2714.7
987.54 -110.49 2663.7
975.08 -108.34 2611.8
995.08 -109.80 2647.0
1011.98 -109.40 2637.4
999.57 -107.34 2587.6
968.82 -103.34 2491.3
986.24 -103.81 2502.7
1013.96 -106.03 2556.2
1013.75 -105.32 2539.1
1009.36 -104.19 2511.8
1026.95 -105.33 2539.2
1158.00 -110.29 2658.7
1156.96 -109.54 2640.6
1186.65 -111.03 2676.6
1161.51 -108.05 2604.7
1187.17 -109.80 2646.9
1188.66 -108.68 2619.9
1161.52 -105.59 2545.5
1146.97 -103.68 2499.4
1157.76 -104.07 2508.8
1168.16 -104.42 2517.2
1150.70 -102.28 2465.8
1130.90 -99.97 2410.0
1120.24 -98.48 2374.1
1139.83 -99.66 2402.5
1159.11 -100.79 2429.8
1145.22 -99.05 2387.7
1115.95 -96.00 2314.2
1113.84 -95.30 2297.5
1133.98 -96.51 2326.6
1145.89 -97.01 2338.5
1147.68 -96.65 2329.9
1164.51 -97.55 2351.7
1191.66 -99.31 2394.0
1167.56 -96.79 2333.4
1146.80 -94.58 2280.1
1165.94 -95.67 2306.3
1163.00 -94.94 2288.7
1152.26 -93.58 2256.1
1161.45 -93.85 2262.6
1003.42 -119.29 2706.5
981.62 -115.89 2629.3
994.63 -116.61 2645.8
1007.00 -117.25 2660.4
987.77 -114.23 2591.8
992.55 -114.01 2586.8
998.03 -113.87 2583.6
1000.60 -113.40 2573.0
1025.32 -115.43 2619.1
1016.55 -113.69 2579.6
995.81 -110.65 2510.4
1016.25 -112.18 2545.3
1036.46 -113.68 2579.2
1046.71 -114.06 2588.0
1163.20 -118.41 2686.6
1153.50 -116.72 2648.3
1161.81 -114.83 2605.4
1142.08 -112.23 2546.3
1174.27 -113.42 2573.5
1157.70 -111.19 2522.8
1158.49 -110.64 2510.4
1160.90 -110.25 2501.5
1141.30 -107.79 2445.7
1117.22 -104.93 2380.8
1123.72 -103.82 2355.6
1129.56 -103.80 2355.1
1122.80 -102.62 2328.4
1146.43 -104.22 2364.7
1157.52 -104.67 2374.9
1160.73 -104.40 2368.8
1166.56 -104.38 2368.2
1185.24 -105.49 2393.5
1187.10 -105.11 2384.8
1136.16 -100.08 2270.6
1108.54 -97.14 2204.0
1123.01 -97.90 2221.3
1119.44 -97.09 2203.0
1153.14 -99.01 2246.4
1315.18 -110.68 2511.3
987.41 -128.79 2759.9
969.70 -125.57 2690.9
990.19 -127.31 2728.1
1000.89 -127.77 2738.0
999.21 -126.66 2714.1
1003.66 -126.33 2707.2
1000.04 -125.01 2678.7
976.60 -121.23 2597.9
960.62 -117.63 2520.6
990.66 -120.49 2581.8
1010.17 -122.03 2615.0
1026.20 -123.14 2638.8
1026.68 -122.39 2622.5
991.18 -117.38 2515.2
1007.62 -117.77 2523.7
1041.95 -121.00 2592.9
1165.28 -121.24 2598.1
1179.13 -120.59 2584.1
1163.00 -118.27 2534.4
1162.98 -117.60 2520.1
1169.20 -117.57 2519.4
1154.29 -115.43 2473.5
1101.83 -109.57 2348.0
1117.59 -109.33 2342.8
1125.13 -109.47 2345.8
1122.26 -108.61 2327.3
1146.76 -110.38 2365.4
1159.60 -111.03 2379.1
1151.83 -109.70 2350.7
1145.70 -108.54 2325.9
1143.90 -107.80 2310.0
1123.32 -105.31 2256.7
1116.38 -104.12 2231.1
1136.27 -105.43 2259.1
1144.54 -105.65 2263.9
1132.46 -104.00 2228.6
1132.05 -103.44 2216.5
970.14 -133.57 2711.6
1002.69 -136.08 2762.5
973.00 -131.11 2661.7
975.97 -130.59 2651.0
985.15 -130.89 2657.2
998.53 -131.75 2674.6
992.66 -130.07 2640.6
966.83 -125.82 2554.2
970.13 -125.39 2545.5
991.63 -127.30 2584.4
1002.50 -127.84 2595.2
1007.99 -127.68 2592.0
995.61 -125.28 2543.2
997.29 -124.66 2530.7
1024.70 -127.25 2583.3
1033.44 -127.50 2588.4
1045.19 -128.12 2600.9
1062.97 -129.46 2628.2
1048.49 -125.29 2543.5
1168.50 -126.87 2575.5
1151.64 -124.32 2523.9
1144.13 -122.82 2493.3
1157.84 -123.59 2509.0
1176.23 -124.85 2534.6
1173.61 -123.88 2514.9
1132.70 -118.90 2413.8
1119.38 -116.22 2359.3
1149.31 -118.68 2409.3
1127.61 -115.81 2351.0
1136.03 -116.05 2355.8
1171.49 -119.03 2416.4
1181.81 -119.44 2424.7
1170.18 -117.64 2388.1
1161.48 -116.15 2357.9
1157.97 -115.19 2338.5
1136.57 -112.47 2283.3
1128.79 -111.12 2255.9
1171.62 -114.75 2329.4
1202.57 -117.17 2378.7
1206.58 -116.96 2374.5
1224.19 -118.07 2396.9
969.69 -140.54 2710.3
992.01 -141.72 2733.1
957.11 -135.76 2618.2
953.43 -134.29 2589.8
959.69 -134.22 2588.6
970.82 -134.84 2600.4
982.71 -135.55 2614.1
971.32 -133.06 2566.1
972.19 -131.38 2533.7
1011.46 -133.09 2566.7
1028.64 -134.46 2593.2
1026.29 -133.28 2570.5
1035.76 -133.65 2577.5
1047.87 -134.34 2590.9
1089.41 -138.78 2676.4
1083.40 -136.28 2628.2
1218.55 -142.52 2748.6
1168.79 -133.58 2576.1
1138.66 -129.39 2495.4
1148.18 -129.74 2502.1
1180.32 -132.62 2557.7
1179.25 -130.30 2513.0
1153.04 -126.71 2443.7
1149.66 -125.65 2423.2
1147.04 -124.68 2404.5
1134.83 -122.68 2366.1
1151.96 -123.87 2388.9
1161.78 -124.25 2396.3
1144.04 -121.71 2347.2
1161.70 -122.93 2370.8
1182.54 -124.48 2400.7
1196.41 -125.28 2416.1
1195.21 -124.50 2401.1
1155.49 -119.74 2309.3
1163.86 -119.99 2314.0
1211.91 -124.30 2397.2
1234.51 -125.97 2429.4
1290.57 -130.36 2514.1
1297.10 -130.36 2514.1
963.34 -147.66 2712.2
957.13 -145.65 2675.2
961.58 -145.27 2668.3
988.48 -148.27 2723.4
1001.23 -149.12 2738.9
982.64 -145.32 2669.2
974.85 -143.16 2629.5
976.29 -142.38 2615.1
976.62 -141.44 2597.9
976.15 -140.40 2578.9
978.43 -139.78 2567.3
993.54 -140.98 2589.3
1001.91 -141.21 2593.6
1009.88 -139.52 2562.7
1039.19 -142.63 2619.8
1028.39 -140.24 2575.7
1029.68 -139.50 2562.3
1029.77 -138.62 2546.1
1054.64 -141.07 2591.0
1198.42 -150.70 2767.9
1167.00 -140.04 2572.2
1135.63 -135.50 2488.8
1143.05 -135.62 2490.9
1162.61 -137.16 2519.3
1173.03 -137.62 2527.7
1187.71 -138.57 2545.1
1177.00 -136.56 2508.2
1145.24 -132.14 2427.1
1138.82 -130.68 2400.3
1156.37 -131.98 2424.1
1163.21 -132.04 2425.2
1144.03 -129.16 2372.4
1146.19 -127.35 2339.2
1170.05 -129.32 2375.3
1189.19 -130.75 2401.5
1210.21 -132.37 2431.2
1192.01 -129.70 2382.3
1199.64 -129.86 2385.1
1246.93 -134.28 2466.5
1219.44 -130.65 2399.8
1296.50 -136.82 2513.0
1318.65 -138.46 2543.1
960.90 -160.15 2807.8
982.20 -158.88 2785.6
982.93 -157.84 2767.4
982.57 -156.64 2746.3
976.35 -154.53 2709.3
994.83 -156.33 2740.9
1007.01 -156.02 2735.4
1003.53 -154.39 2706.8
1011.79 -154.58 2710.2
996.87 -151.25 2651.8
980.27 -147.71 2589.7
981.87 -146.95 2576.3
995.56 -147.99 2594.6
1017.98 -150.31 2635.2
1012.69 -148.53 2604.1
1000.72 -145.80 2556.2
1036.11 -149.96 2629.2
1070.88 -152.00 2664.9
1056.60 -149.01 2612.5
1045.10 -146.45 2567.6
1178.23 -159.02 2788.1
1217.14 -157.51 2761.6
1136.27 -143.67 2518.8
1134.68 -142.65 2500.9
1136.74 -142.09 2491.2
1137.08 -141.33 2477.9
1147.82 -141.87 2487.3
1156.50 -142.14 2492.1
1168.99 -142.88 2505.0
1178.56 -143.25 2511.5
1162.58 -140.53 2463.9
1155.81 -138.95 2436.1
1173.00 -140.25 2458.9
1170.85 -139.24 2441.2
1142.16 -135.09 2368.5
1157.04 -134.68 2361.3
1196.40 -138.53 2428.8
1191.71 -137.27 2406.6
1187.37 -136.05 2385.3
1206.62 -137.54 2411.5
1256.49 -142.49 2498.2
1251.88 -140.52 2463.6
1243.30 -138.14 2422.0
1300.47 -143.77 2520.7
986.04 -163.16 2736.2
969.49 -159.27 2671.0
960.18 -156.62 2626.6
976.53 -158.17 2652.5
1000.62 -160.94 2699.0
997.80 -158.27 2654.2
975.54 -153.68 2577.3
988.64 -153.64 2576.6
1013.88 -156.51 2624.6
1014.01 -155.48 2607.5
1007.14 -153.41 2572.6
1029.02 -155.71 2611.2
1057.70 -159.00 2666.5
1094.57 -162.42 2723.8
1090.16 -160.73 2695.5
1090.51 -159.76 2679.2
1066.95 -155.32 2604.7
1215.37 -164.43 2757.6
1170.74 -155.65 2610.2
1145.17 -151.37 2538.5
1163.42 -152.91 2564.3
1163.95 -152.11 2550.9
1163.17 -151.15 2534.8
1174.87 -151.81 2545.9
1184.52 -152.20 2552.4
1174.33 -150.05 2516.4
1161.44 -147.59 2475.1
1170.96 -147.98 2481.6
1187.35 -149.23 2502.6
1203.82 -150.48 2523.5
1198.34 -148.98 2498.5
1173.25 -145.08 2433.0
1147.43 -141.13 2366.7
1140.14 -139.49 2339.2
1185.46 -144.26 2419.3
1207.73 -146.20 2451.8
1182.26 -142.37 2387.5
1205.47 -144.41 2421.7
1250.72 -149.05 2499.6
1280.12 -151.77 2545.2
1293.49 -152.57 2558.6
1276.61 -149.81 2512.3
1248.62 -145.78 2444.7
1315.59 -151.29 2537.2
994.07 -172.88 2778.5
974.39 -168.24 2703.9
955.05 -163.72 2631.3
953.87 -162.36 2609.4
979.15 -165.49 2659.7
1010.20 -169.54 2724.8
1025.84 -170.97 2747.8
1007.84 -166.82 2681.0
978.94 -160.92 2586.2
976.63 -159.45 2562.6
997.80 -161.81 2600.4
1025.98 -165.26 2655.9
1027.62 -164.42 2642.5
1024.10 -162.77 2616.0
1051.94 -166.10 2669.4
1052.41 -165.08 2653.1
1046.50 -163.09 2621.1
1067.25 -165.25 2655.8
1074.29 -165.28 2656.2
1080.21 -165.13 2653.8
1061.50 -161.24 2591.4
1158.88 -170.63 2742.3
1190.72 -172.15 2766.7
1193.99 -171.59 2757.7
1201.12 -169.57 2725.2
1175.41 -160.28 2576.0
1176.35 -159.50 2563.5
1191.46 -160.65 2581.8
1201.17 -161.05 2588.3
1190.65 -158.75 2551.4
1170.20 -155.16 2493.7
1172.51 -154.62 2484.9
1181.63 -154.97 2490.6
1188.62 -155.04 2491.7
1189.99 -154.38 2481.1
1169.63 -150.92 2425.5
1169.50 -150.10 2412.3
1189.87 -151.90 2441.2
1206.40 -153.19 2462.0
1198.31 -151.37 2432.7
1215.78 -152.77 2455.2
1279.15 -159.07 2556.4
1249.90 -154.63 2485.1
1277.57 -157.24 2527.1
1270.11 -155.52 2499.5
1256.19 -153.04 2459.5
1279.48 -155.09 2492.5
1298.88 -155.87 2505.0
953.70 -180.63 2786.8
972.20 -182.75 2819.5
987.88 -182.94 2822.5
985.44 -181.15 2794.8
985.53 -179.84 2774.7
967.03 -175.19 2702.9
950.82 -169.79 2619.6
979.78 -173.72 2680.2
988.66 -174.06 2685.5
1003.81 -175.49 2707.6
1011.72 -175.65 2710.0
984.52 -169.74 2618.9
971.73 -166.39 2567.2
985.37 -167.58 2585.5
1019.83 -172.27 2657.9
1054.25 -175.71 2710.9
1042.15 -172.54 2662.1
1058.75 -174.14 2686.7
1045.63 -170.85 2636.0
1055.60 -171.36 2643.9
1093.89 -176.43 2722.1
1088.36 -174.42 2691.0
1077.42 -171.56 2647.0
1189.77 -179.18 2764.5
1202.63 -178.96 2761.1
1180.20 -174.59 2693.6
1155.08 -168.87 2605.4
1188.27 -169.75 2619.0
1157.84 -164.47 2537.5
1172.03 -165.54 2554.1
1150.30 -161.56 2492.6
1145.74 -159.13 2455.2
1153.93 -159.38 2459.0
1145.94 -157.41 2428.6
1145.10 -156.43 2413.6
1152.78 -156.63 2416.5
1153.56 -155.89 2405.1
1172.86 -155.14 2393.6
1217.12 -160.15 2470.8
1254.41 -162.49 2507.0
1227.76 -158.22 2441.1
1262.99 -161.92 2498.2
1295.73 -165.27 2549.9
1317.09 -164.64 2540.1
963.27 -188.31 2793.6
967.22 -182.23 2703.4
979.62 -181.93 2699.0
992.31 -182.98 2714.5
988.51 -181.00 2685.1
982.15 -178.57 2649.2
967.94 -174.77 2592.7
981.56 -176.00 2611.1
1012.22 -180.26 2674.2
1007.62 -178.22 2643.9
1020.75 -179.32 2660.3
1056.26 -183.09 2716.1
1027.08 -176.85 2623.6
1024.56 -175.25 2599.9
1045.85 -177.73 2636.6
1092.46 -184.44 2736.2
1103.17 -183.86 2727.6
1090.43 -180.58 2678.9
1191.78 -187.80 2786.0
1198.06 -184.32 2734.4
1148.84 -174.68 2591.4
1165.43 -176.17 2613.5
1154.33 -173.48 2573.7
1129.10 -168.72 2502.9
1140.26 -169.41 2513.2
1160.16 -171.39 2542.6
1156.87 -169.94 2521.0
1155.46 -165.98 2462.3
1168.78 -166.97 2477.0
1174.89 -166.92 2476.3
1189.58 -168.09 2493.7
1213.40 -170.53 2529.9
1204.86 -168.42 2498.6
1194.00 -166.01 2462.8
1230.65 -170.20 2524.9
1230.67 -169.30 2511.6
1246.50 -170.57 2530.5
1272.60 -173.23 2569.9
1236.13 -167.39 2483.3
1228.34 -165.48 2454.9
1258.99 -168.73 2503.1
1272.72 -169.70 2517.5
1286.96 -170.72 2532.6
1300.35 -171.62 2546.0
1301.02 -170.84 2534.5
976.46 -198.23 2831.8
995.64 -194.80 2782.8
1003.87 -190.88 2726.8
980.61 -185.15 2645.0
986.29 -184.93 2641.8
1022.84 -190.46 2720.9
1035.89 -190.27 2718.1
1022.02 -186.45 2663.6
1037.39 -187.98 2685.5
1049.59 -188.93 2698.9
1041.11 -186.16 2659.4
1041.60 -185.02 2643.2
1064.45 -187.84 2683.5
1117.02 -190.88 2726.9
1171.43 -192.86 2755.1
1201.01 -190.75 2725.0
1217.43 -192.23 2746.1
1190.92 -185.87 2655.2
1163.41 -180.53 2579.0
1175.55 -181.37 2591.0
1195.62 -183.42 2620.3
1189.59 -181.46 2592.3
1165.86 -176.84 2526.3
1159.92 -174.96 2499.4
1165.24 -174.79 2497.0
1176.49 -175.50 2507.1
1186.08 -175.96 2513.7
1187.12 -175.15 2502.1
1223.35 -179.51 2564.5
1243.03 -179.47 2563.9
1259.34 -180.86 2583.7
1236.64 -176.66 2523.8
1225.16 -174.10 2487.2
1217.94 -172.17 2459.6
1239.07 -174.24 2489.2
1288.90 -180.31 2575.9
1290.20 -179.56 2565.2
1273.44 -176.32 2518.9
1278.19 -176.08 2515.4
1283.82 -175.96 2513.6
1292.18 -176.21 2517.2
1007.62 -202.97 2796.1
992.58 -198.52 2734.7
1010.83 -200.73 2765.2
1004.40 -198.05 2728.3
986.00 -193.06 2659.5
996.25 -193.71 2668.5
1002.32 -193.55 2666.3
996.71 -191.15 2633.2
1020.80 -194.44 2678.5
1046.16 -197.92 2726.5
1056.27 -198.49 2734.4
1062.08 -198.25 2731.1
1043.85 -193.56 2666.4
1033.38 -190.36 2622.3
1052.88 -192.68 2654.3
1088.42 -197.89 2726.1
1096.37 -198.05 2728.3
1093.85 -196.33 2704.6
1160.70 -198.17 2729.9
1169.90 -196.15 2702.1
1175.00 -195.83 2697.7
1195.69 -198.10 2729.0
1198.49 -193.98 2672.1
1177.59 -189.50 2610.4
1192.28 -190.76 2627.9
1196.06 -189.21 2606.4
1160.25 -182.51 2514.2
1157.64 -181.08 2494.5
1167.18 -181.56 2501.1
1169.11 -180.86 2491.4
1168.44 -179.76 2476.3
1164.28 -178.14 2454.0
1196.53 -182.08 2508.3
1210.03 -183.14 2522.8
1201.77 -178.04 2452.6
1248.79 -184.03 2535.1
1234.15 -180.92 2492.3
1247.34 -181.90 2505.8
1296.22 -186.12 2563.9
1275.29 -182.18 2509.7
990.38 -205.15 2728.6
993.88 -204.42 2718.8
998.72 -203.96 2712.8
991.73 -201.12 2675.0
990.85 -199.55 2654.1
983.89 -196.78 2617.3
997.54 -196.79 2617.5
1032.77 -202.37 2691.6
1053.22 -204.99 2726.5
1053.22 -203.62 2708.3
1028.41 -197.51 2627.0
1046.82 -198.42 2639.0
1095.63 -206.32 2744.2
1075.34 -199.90 2658.8
1098.56 -202.92 2698.9
1168.88 -207.96 2766.0
1183.58 -204.31 2717.4
1187.09 -203.70 2709.3
1199.82 -204.68 2722.3
1182.68 -200.57 2667.7
1181.55 -199.22 2649.7
1172.99 -196.63 2615.3
1156.89 -192.81 2564.5
1172.30 -194.27 2583.9
1183.65 -195.03 2594.0
1153.02 -188.91 2512.6
1150.45 -187.43 2493.0
1180.56 -191.26 2543.9
1209.61 -194.88 2592.0
1209.13 -192.66 2562.5
1182.48 -187.39 2492.4
1197.64 -188.76 2510.6
1193.44 -187.08 2488.3
1219.59 -187.13 2489.0
1270.26 -192.87 2565.2
1274.41 -189.53 2520.8
1292.72 -191.27 2544.0
995.57 -219.61 2823.6
1003.13 -214.96 2763.7
975.90 -207.64 2669.6
978.38 -205.26 2639.0
1009.86 -210.39 2705.0
1007.24 -208.39 2679.4
1003.44 -206.19 2651.0
