ply
format ascii 1.0
element vertex 2151
property float x
property float y
property float z
end_header
868.24 -127.95 1762.6
873.25 -128.02 1763.5
894.26 -130.41 1796.5
905.13 -131.31 1808.9
890.95 -128.59 1771.4
895.06 -128.52 1770.4
922.22 -131.75 1814.9
911.89 -129.61 1785.4
875.00 -123.74 1704.5
878.49 -123.61 1702.8
909.54 -127.34 1754.1
908.97 -126.62 1744.3
897.25 -124.37 1713.3
917.47 -126.55 1743.2
939.20 -128.91 1775.8
940.45 -128.45 1769.5
947.32 -128.76 1773.8
940.99 -127.28 1753.4
922.25 -124.15 1710.2
925.68 -124.02 1708.4
945.33 -126.04 1736.3
960.30 -127.43 1755.5
960.43 -126.85 1747.4
961.02 -126.33 1740.3
966.89 -126.51 1742.7
974.23 -126.88 1747.8
981.59 -127.24 1752.8
993.37 -128.18 1765.7
1004.21 -128.98 1776.8
983.55 -125.75 1732.3
960.25 -122.21 1683.6
969.00 -122.77 1691.2
976.78 -123.20 1697.1
977.09 -122.68 1690.0
999.92 -124.99 1721.8
1028.90 -128.04 1763.8
1007.08 -124.77 1718.8
980.03 -120.88 1665.2
997.96 -122.56 1688.3
1023.11 -125.10 1723.3
1033.57 -125.83 1733.3
1048.17 -127.05 1750.2
1075.17 -129.76 1787.5
1094.57 -131.54 1812.0
1100.60 -131.70 1814.2
1107.67 -131.98 1818.1
843.00 -158.75 2111.4
840.27 -157.21 2091.0
844.19 -156.93 2087.3
821.38 -151.72 2018.0
809.99 -148.67 1977.4
800.69 -146.04 1942.4
791.99 -143.55 1909.3
786.99 -141.76 1885.4
784.97 -140.52 1869.0
789.48 -140.46 1868.2
788.51 -139.43 1854.5
784.34 -137.85 1833.5
781.26 -136.48 1815.3
786.02 -136.49 1815.4
807.91 -139.46 1854.9
823.56 -141.32 1879.6
814.77 -138.99 1848.6
815.55 -138.31 1839.6
816.28 -137.63 1830.5
806.76 -135.24 1798.7
818.85 -136.47 1815.2
825.64 -136.82 1819.8
832.04 -137.10 1823.5
852.18 -139.62 1857.0
864.09 -140.78 1872.4
872.71 -141.39 1880.5
882.63 -142.20 1891.4
880.30 -141.04 1875.9
862.57 -137.44 1828.0
852.33 -135.07 1796.5
856.13 -134.93 1794.7
866.39 -135.81 1806.4
872.36 -136.01 1809.0
859.63 -133.31 1773.1
861.60 -132.91 1767.7
876.28 -134.45 1788.3
876.93 -133.85 1780.2
883.74 -134.18 1784.7
891.90 -134.71 1791.8
889.82 -133.70 1778.3
893.05 -133.50 1775.6
915.18 -136.10 1810.3
921.18 -136.30 1812.8
886.79 -130.54 1736.3
878.06 -128.60 1710.5
913.13 -133.07 1769.9
921.35 -133.60 1776.9
897.77 -129.53 1722.8
883.23 -126.80 1686.5
901.06 -128.72 1712.1
947.46 -134.69 1791.4
972.16 -137.52 1829.1
969.74 -136.52 1815.7
953.59 -133.59 1776.9
937.27 -130.68 1738.1
944.09 -131.00 1742.3
952.35 -131.51 1749.2
954.89 -131.24 1745.6
963.66 -131.82 1753.3
972.45 -132.40 1761.0
988.05 -133.90 1780.9
1006.16 -135.71 1805.1
1008.26 -135.37 1800.5
1012.31 -135.29 1799.4
1023.21 -136.12 1810.4
1002.63 -132.77 1765.9
978.90 -129.04 1716.2
986.72 -129.48 1722.1
986.10 -128.81 1713.3
975.95 -126.92 1688.1
993.76 -128.66 1711.2
1015.18 -130.85 1740.3
1022.58 -131.22 1745.2
1027.46 -131.26 1745.8
1043.52 -132.73 1765.4
1067.80 -135.22 1798.5
1058.47 -133.46 1775.1
1051.61 -132.02 1755.9
1078.62 -134.83 1793.3
1095.45 -136.34 1813.4
857.65 -167.07 2148.1
843.11 -163.18 2098.1
835.82 -160.73 2066.6
838.54 -160.23 2060.1
851.82 -161.74 2079.5
841.23 -158.72 2040.7
828.55 -155.35 1997.4
819.90 -152.78 1964.3
814.58 -150.85 1939.5
804.49 -148.07 1903.7
790.33 -144.57 1858.8
783.03 -142.37 1830.5
776.79 -140.38 1804.9
785.89 -141.18 1815.1
813.75 -145.31 1868.3
840.24 -149.15 1917.7
840.78 -148.37 1907.7
823.50 -144.47 1857.5
806.80 -140.72 1809.3
798.47 -138.46 1780.2
812.56 -140.10 1801.2
814.79 -139.68 1795.9
817.82 -139.40 1792.3
843.30 -142.93 1837.7
860.19 -144.98 1864.0
856.62 -143.57 1845.9
853.80 -142.30 1829.6
879.31 -145.74 1873.8
887.97 -146.37 1881.9
863.31 -141.53 1819.6
852.13 -138.93 1786.3
861.94 -139.77 1797.1
866.59 -139.77 1797.1
859.49 -137.89 1772.8
866.71 -138.30 1778.2
885.35 -140.53 1806.8
889.57 -140.46 1805.9
893.34 -140.31 1804.0
897.54 -140.24 1803.1
896.37 -139.33 1791.4
900.08 -139.19 1789.6
897.03 -138.01 1774.4
875.84 -134.06 1723.6
882.57 -134.40 1728.0
916.64 -138.89 1785.7
929.91 -140.19 1802.4
916.61 -137.49 1767.7
902.24 -134.66 1731.4
898.36 -133.42 1715.4
889.77 -131.49 1690.6
910.93 -133.96 1722.3
946.26 -138.48 1780.4
952.67 -138.74 1783.8
964.29 -139.75 1796.8
975.96 -140.76 1809.8
967.23 -138.84 1785.1
959.84 -137.12 1763.0
958.10 -136.22 1751.4
961.59 -136.07 1749.5
981.95 -138.30 1778.2
1008.23 -141.34 1817.2
1023.01 -142.75 1835.3
1021.28 -141.84 1823.7
999.44 -138.17 1776.5
983.79 -135.38 1740.6
994.60 -136.25 1751.7
1003.47 -136.84 1759.3
1004.92 -136.42 1753.9
997.90 -134.85 1733.8
995.28 -133.89 1721.5
1019.67 -136.56 1755.8
1047.71 -139.69 1796.1
1062.78 -141.08 1813.8
1073.87 -141.92 1824.7
1097.69 -144.43 1857.0
1097.19 -143.74 1848.0
1058.31 -138.04 1774.8
1041.20 -135.22 1738.6
1058.40 -136.86 1759.7
1089.10 -140.23 1802.9
849.36 -170.97 2127.3
824.37 -164.87 2051.4
828.94 -164.73 2049.6
841.40 -166.14 2067.1
878.13 -172.29 2143.7
860.88 -166.80 2075.3
836.28 -161.02 2003.5
818.30 -156.59 1948.3
795.42 -151.28 1882.2
804.24 -152.02 1891.5
818.20 -153.72 1912.7
801.89 -149.75 1863.3
800.02 -148.51 1847.8
808.83 -149.25 1857.0
818.88 -150.21 1869.0
836.62 -152.56 1898.2
835.89 -151.54 1885.5
828.60 -149.34 1858.2
830.57 -148.83 1851.8
833.75 -148.54 1848.2
825.37 -146.21 1819.2
820.17 -144.46 1797.4
839.00 -146.94 1828.3
848.35 -147.75 1838.3
835.90 -144.76 1801.2
830.88 -143.10 1780.5
855.01 -146.44 1822.0
880.59 -149.99 1866.2
870.43 -147.45 1834.6
855.85 -144.19 1794.1
862.66 -144.55 1798.6
875.11 -145.85 1814.7
873.71 -144.84 1802.1
876.61 -144.55 1798.5
890.04 -145.98 1816.4
887.66 -144.83 1802.0
884.78 -143.60 1786.8
888.94 -143.53 1785.8
886.41 -142.38 1771.5
893.22 -142.73 1775.9
893.74 -142.08 1767.8
880.22 -139.22 1732.2
895.13 -140.86 1752.6
918.32 -143.78 1788.9
921.07 -143.48 1785.3
917.84 -142.27 1770.1
913.16 -140.84 1752.3
923.67 -141.75 1763.7
929.58 -141.96 1766.3
910.32 -138.33 1721.2
904.91 -136.84 1702.6
917.75 -138.11 1718.4
935.37 -140.08 1742.9
960.65 -143.17 1781.4
965.18 -143.16 1781.3
962.55 -142.09 1767.9
965.13 -141.80 1764.3
952.31 -139.25 1732.6
958.17 -139.45 1735.1
979.52 -141.89 1765.5
989.82 -142.72 1775.8
1006.98 -144.52 1798.2
1003.19 -143.31 1783.2
968.42 -137.71 1713.5
960.46 -135.96 1691.6
975.64 -137.48 1710.5
985.43 -138.23 1719.9
987.79 -137.93 1716.2
993.63 -138.13 1718.6
1009.99 -139.78 1739.1
1030.46 -141.97 1766.5
1054.05 -144.58 1798.9
1074.72 -146.77 1826.1
1079.76 -146.81 1826.7
1054.75 -142.78 1776.6
1041.29 -140.35 1746.3
1056.42 -141.77 1764.0
1074.19 -143.53 1785.9
1106.47 -147.21 1831.7
822.22 -170.85 2059.4
821.24 -169.55 2043.6
848.23 -174.00 2097.3
852.53 -173.76 2094.5
877.59 -177.74 2142.4
864.93 -172.99 2085.1
853.41 -169.62 2044.6
846.34 -167.18 2015.1
811.58 -159.33 1920.5
808.39 -157.73 1901.3
835.70 -162.08 1953.6
830.91 -160.18 1930.7
809.39 -155.09 1869.4
799.13 -152.22 1834.7
803.93 -152.22 1834.8
817.17 -153.82 1854.1
833.31 -155.94 1879.7
843.88 -157.00 1892.4
845.12 -156.32 1884.2
847.13 -155.79 1877.9
857.77 -156.85 1890.6
870.53 -158.28 1907.8
864.64 -156.32 1884.2
849.87 -152.79 1841.6
852.55 -152.41 1837.1
863.21 -153.46 1849.7
865.88 -153.08 1845.2
870.65 -153.08 1845.2
864.30 -151.13 1821.7
852.70 -148.30 1787.5
860.78 -148.89 1794.7
873.23 -150.23 1810.8
869.64 -148.82 1793.8
871.22 -148.29 1787.5
893.83 -151.34 1824.2
900.73 -151.70 1828.6
901.45 -151.03 1820.4
909.68 -151.61 1827.5
896.52 -148.65 1791.7
891.72 -147.09 1772.9
885.49 -145.31 1751.5
865.16 -141.25 1702.6
895.43 -145.45 1753.2
934.56 -151.04 1820.6
931.44 -149.78 1805.4
920.90 -147.34 1776.0
918.08 -146.16 1761.8
930.92 -147.47 1777.6
932.22 -146.95 1771.3
908.30 -142.48 1717.4
894.93 -139.70 1683.8
898.33 -139.55 1682.0
906.92 -140.20 1689.9
922.15 -141.87 1710.0
946.49 -144.92 1746.8
963.82 -146.87 1770.3
975.98 -148.02 1784.1
972.33 -146.77 1769.1
951.75 -142.99 1723.5
947.43 -141.67 1707.7
942.56 -140.29 1691.0
945.42 -140.06 1688.2
979.56 -144.45 1741.2
982.99 -144.29 1739.2
968.68 -141.54 1706.1
977.95 -142.25 1714.6
1002.13 -145.10 1749.0
1021.47 -147.24 1774.7
1019.43 -146.29 1763.3
1027.37 -146.77 1769.1
1032.81 -146.89 1770.5
1041.27 -147.44 1777.1
1057.35 -149.05 1796.6
1057.26 -148.39 1788.6
1056.11 -147.58 1778.9
1069.74 -148.83 1794.0
1100.33 -152.43 1837.3
842.02 -180.43 2109.0
849.34 -180.83 2113.6
868.26 -183.67 2146.8
863.64 -181.53 2121.8
873.27 -182.39 2131.9
871.55 -180.89 2114.3
849.88 -175.29 2048.8
840.58 -172.29 2013.8
845.03 -172.14 2012.0
819.58 -165.93 1939.4
803.56 -161.69 1889.9
819.08 -163.82 1914.7
829.58 -164.92 1927.6
822.70 -162.57 1900.2
802.17 -157.57 1841.7
797.78 -155.78 1820.8
823.45 -159.85 1868.3
851.35 -164.29 1920.3
845.76 -162.27 1896.6
832.73 -158.84 1856.6
843.70 -160.01 1870.3
863.38 -162.81 1903.0
876.58 -164.36 1921.1
871.14 -162.42 1898.4
850.55 -157.69 1843.1
848.20 -156.37 1827.7
863.06 -158.23 1849.4
870.38 -158.69 1854.8
872.62 -158.22 1849.4
863.29 -155.68 1819.6
857.27 -153.75 1797.1
870.55 -155.29 1815.0
886.50 -157.28 1838.4
886.89 -156.51 1829.3
863.64 -151.60 1771.9
863.84 -150.83 1762.9
888.24 -154.27 1803.2
905.72 -156.48 1829.0
921.52 -158.39 1851.3
915.55 -156.54 1829.7
891.57 -151.66 1772.6
864.64 -146.32 1710.3
901.17 -150.96 1764.4
937.59 -156.26 1826.5
929.91 -154.21 1802.4
926.25 -152.83 1786.3
931.75 -152.97 1788.0
946.03 -154.55 1806.4
951.10 -154.61 1807.2
933.32 -150.98 1764.7
926.13 -149.09 1742.6
932.48 -149.38 1746.0
945.90 -150.80 1762.5
941.87 -149.43 1746.6
944.91 -149.20 1743.8
967.95 -152.11 1777.9
987.30 -154.41 1804.8
993.30 -154.62 1807.2
981.48 -152.06 1777.3
986.46 -152.12 1778.0
991.44 -152.17 1778.7
993.99 -151.86 1775.0
1028.78 -156.45 1828.6
1026.50 -155.39 1816.2
1005.45 -151.51 1770.8
1016.82 -152.52 1782.7
1045.10 -156.06 1824.0
1082.99 -160.98 1881.6
1083.79 -159.67 1866.2
1061.28 -155.65 1819.3
1058.75 -154.60 1807.0
1063.25 -154.57 1806.7
1035.77 -149.91 1752.2
1004.01 -144.68 1691.1
1045.56 -150.02 1753.4
1109.38 -158.48 1852.4
931.61 -211.16 2395.6
859.97 -189.86 2153.9
849.55 -186.35 2114.1
851.28 -185.53 2104.8
834.17 -180.65 2049.4
831.17 -178.86 2029.1
847.83 -181.30 2056.7
842.08 -178.94 2030.0
812.40 -171.56 1946.3
795.46 -166.95 1894.0
784.89 -163.72 1857.3
783.52 -162.44 1842.8
805.99 -166.08 1884.1
824.30 -168.83 1915.3
833.24 -169.64 1924.5
828.29 -167.63 1901.7
802.43 -161.44 1831.4
807.62 -161.52 1832.4
837.45 -166.51 1889.0
833.83 -164.83 1869.9
822.37 -161.62 1833.5
834.94 -163.15 1850.8
825.33 -160.35 1819.1
809.80 -156.44 1774.7
851.44 -163.55 1855.4
877.13 -167.54 1900.7
864.41 -164.19 1862.6
868.80 -164.11 1861.7
870.22 -163.47 1854.5
867.36 -162.03 1838.2
859.72 -159.73 1812.0
855.40 -158.06 1793.1
865.22 -159.01 1803.9
877.25 -160.36 1819.2
889.77 -161.78 1835.3
879.21 -159.01 1803.9
860.62 -154.82 1756.4
866.93 -155.14 1759.9
893.17 -158.99 1803.7
916.02 -162.21 1840.2
924.75 -162.91 1848.1
914.70 -160.31 1818.6
896.42 -156.30 1773.1
898.73 -155.90 1768.6
898.29 -155.04 1758.8
889.16 -152.68 1732.1
911.91 -155.80 1767.5
941.69 -160.09 1816.1
934.81 -158.13 1793.9
937.08 -157.73 1789.3
972.29 -162.85 1847.4
985.83 -164.31 1864.0
977.91 -162.19 1840.0
984.92 -162.56 1844.2
976.38 -160.37 1819.3
949.76 -155.25 1761.2
951.39 -154.77 1755.8
973.03 -157.54 1787.2
987.61 -159.14 1805.4
989.29 -158.66 1799.9
991.91 -158.33 1796.2
1013.38 -161.00 1826.5
1010.20 -159.75 1812.3
1004.53 -158.12 1793.8
1047.19 -164.08 1861.4
1051.34 -163.97 1860.2
1011.18 -156.99 1780.9
1004.80 -155.29 1761.7
1026.09 -157.86 1790.8
1057.44 -161.95 1837.2
1082.48 -165.04 1872.3
1071.09 -162.58 1844.4
1062.61 -160.57 1821.6
1074.20 -161.61 1833.3
1086.34 -162.71 1845.9
1066.05 -158.97 1803.5
1056.79 -156.90 1780.0
1126.08 -166.46 1888.5
847.94 -195.25 2151.7
841.01 -192.39 2120.2
821.37 -186.68 2057.2
823.74 -186.01 2049.9
854.84 -191.79 2113.6
866.69 -193.21 2129.3
845.74 -187.35 2064.6
845.00 -186.01 2049.9
846.11 -185.09 2039.7
822.22 -178.74 1969.8
815.76 -176.24 1942.3
815.77 -175.17 1930.4
790.77 -168.76 1859.8
793.29 -168.27 1854.4
798.93 -168.45 1856.4
794.67 -166.55 1835.4
824.94 -171.86 1894.0
832.67 -172.45 1900.4
818.32 -168.48 1856.7
828.81 -169.64 1869.5
827.18 -168.32 1855.0
817.73 -165.44 1823.2
829.45 -166.84 1838.7
816.53 -163.31 1799.7
809.23 -160.93 1773.5
860.42 -170.14 1875.0
890.74 -175.15 1930.2
880.60 -172.18 1897.5
872.01 -169.56 1868.6
860.32 -166.36 1833.4
870.59 -167.42 1845.1
876.64 -167.66 1847.7
865.53 -164.64 1814.4
868.50 -164.31 1810.8
863.23 -162.44 1790.1
858.30 -160.64 1770.4
880.36 -163.90 1806.2
893.35 -165.44 1823.2
876.02 -161.37 1778.4
879.29 -161.13 1775.7
917.63 -167.28 1843.5
939.75 -170.42 1878.1
923.04 -166.53 1835.2
895.81 -160.79 1771.9
901.73 -161.02 1774.5
905.84 -160.94 1773.6
888.54 -157.07 1730.9
903.52 -158.91 1751.3
941.06 -164.69 1814.9
940.63 -163.79 1805.0
931.36 -161.37 1778.4
954.94 -164.64 1814.5
965.61 -165.67 1825.7
954.34 -162.94 1795.6
955.63 -162.36 1789.3
941.32 -159.16 1754.0
920.73 -154.93 1707.4
929.38 -155.64 1715.2
950.93 -158.49 1746.6
965.43 -160.14 1764.8
977.59 -161.40 1778.6
990.77 -162.80 1794.2
1001.59 -163.81 1805.3
984.79 -160.31 1766.7
969.77 -157.14 1731.7
1004.48 -162.01 1785.4
1024.18 -164.43 1812.1
995.75 -159.14 1753.8
978.94 -155.74 1716.3
991.22 -156.98 1730.0
1007.03 -158.77 1749.7
1014.93 -159.29 1755.5
1039.37 -162.40 1789.7
1069.46 -166.36 1833.4
1069.48 -165.63 1825.3
1068.96 -164.82 1816.4
1090.72 -167.44 1845.2
847.65 -202.09 2165.2
839.36 -198.80 2130.0
847.45 -199.40 2136.4
842.63 -196.98 2110.5
835.83 -194.13 2080.0
857.66 -197.92 2120.6
881.16 -202.05 2164.8
870.49 -198.34 2125.1
863.44 -195.50 2094.6
859.30 -193.34 2071.5
844.31 -188.79 2022.7
845.69 -187.93 2013.5
838.10 -185.10 1983.2
806.99 -177.14 1898.0
783.73 -170.99 1832.1
781.85 -168.54 1805.8
831.94 -178.27 1910.1
843.70 -179.72 1925.6
831.82 -176.15 1887.3
827.84 -174.28 1867.3
813.22 -170.21 1823.7
814.71 -169.54 1816.5
837.07 -173.19 1855.6
851.77 -175.22 1877.4
871.53 -178.27 1910.0
897.24 -182.49 1955.2
901.84 -182.39 1954.2
864.49 -173.86 1862.8
829.70 -165.94 1777.9
842.37 -167.54 1795.1
875.53 -173.18 1855.5
881.60 -173.43 1858.2
870.09 -170.23 1823.9
880.40 -171.32 1835.6
880.81 -170.48 1826.6
875.09 -168.47 1805.0
898.09 -171.97 1842.6
905.02 -172.38 1847.0
881.58 -167.04 1789.7
862.76 -162.61 1742.3
879.71 -164.95 1767.3
923.52 -172.26 1845.7
927.34 -172.08 1843.8
902.38 -166.59 1784.9
913.29 -167.75 1797.3
920.62 -168.24 1802.5
904.31 -164.42 1761.6
907.01 -164.08 1758.0
931.71 -167.71 1796.9
950.12 -170.17 1823.3
960.31 -171.14 1833.7
939.91 -166.68 1785.9
903.46 -159.43 1708.2
907.39 -159.35 1707.3
926.34 -161.88 1734.5
933.61 -162.37 1739.6
932.86 -161.46 1729.9
931.11 -160.38 1718.4
943.13 -161.68 1732.3
977.21 -166.73 1786.4
1009.58 -171.44 1836.8
1016.13 -171.74 1840.1
1020.75 -171.72 1839.8
1030.71 -172.58 1849.1
1041.67 -173.61 1860.1
1042.41 -172.94 1852.9
1028.41 -169.83 1819.6
998.52 -164.14 1758.7
980.74 -160.48 1719.5
1005.41 -163.78 1754.8
1034.19 -167.71 1796.9
1016.24 -164.06 1757.8
1012.15 -162.67 1742.9
1047.68 -167.63 1796.0
1050.14 -167.28 1792.3
1047.54 -166.13 1780.0
1066.69 -168.42 1804.6
1078.30 -169.51 1816.2
1108.84 -173.56 1859.6
922.35 -230.59 2403.8
914.43 -225.56 2351.4
865.35 -207.91 2167.4
834.54 -199.21 2076.7
855.61 -202.93 2115.5
876.47 -206.56 2153.3
856.34 -200.54 2090.5
842.76 -196.11 2044.4
846.91 -195.85 2041.7
839.53 -192.94 2011.3
848.60 -193.82 2020.5
848.01 -192.49 2006.7
815.01 -183.87 1916.8
790.62 -177.29 1848.2
790.79 -175.20 1826.5
832.17 -183.28 1910.6
834.73 -182.75 1905.1
809.15 -176.11 1835.9
793.35 -171.66 1789.5
810.62 -174.38 1817.8
843.49 -180.40 1880.6
852.88 -181.36 1890.6
855.30 -180.84 1885.2
864.73 -181.79 1895.1
880.02 -183.96 1917.7
880.79 -183.09 1908.6
837.90 -173.20 1805.5
835.86 -170.87 1781.2
857.07 -174.24 1816.4
849.82 -171.82 1791.2
854.47 -171.82 1791.2
881.52 -176.30 1837.9
904.44 -179.91 1875.6
920.12 -182.06 1897.9
923.67 -181.79 1895.1
911.42 -178.43 1860.0
887.13 -172.76 1800.9
866.57 -167.87 1750.0
879.98 -169.58 1767.8
922.00 -176.76 1842.6
943.73 -179.99 1876.3
938.62 -178.10 1856.6
925.30 -174.67 1820.9
907.30 -170.41 1776.4
916.42 -171.25 1785.2
945.21 -175.74 1832.1
953.09 -176.32 1838.1
954.08 -175.63 1830.9
966.60 -177.05 1845.7
949.47 -173.06 1804.1
908.88 -164.85 1718.5
910.03 -164.25 1712.2
944.94 -169.72 1769.3
966.42 -172.74 1800.8
974.77 -173.40 1807.6
982.68 -173.97 1813.6
981.07 -172.86 1802.0
1000.46 -175.44 1828.9
1030.03 -179.77 1874.0
1036.17 -179.99 1876.4
1019.11 -176.20 1836.9
1005.29 -173.00 1803.5
1022.49 -175.15 1825.9
1032.45 -176.04 1835.2
1039.50 -176.43 1839.2
1032.78 -174.49 1819.0
1014.13 -170.56 1778.0
1041.39 -174.35 1817.6
1071.79 -178.63 1862.2
1055.46 -175.12 1825.6
1037.99 -171.45 1787.4
1059.03 -174.15 1815.5
1071.62 -175.44 1828.9
1078.69 -175.82 1832.9
1114.68 -180.89 1885.7
900.75 -232.85 2363.5
899.68 -231.00 2344.7
917.89 -234.09 2376.1
847.44 -209.11 2122.5
815.05 -199.82 2028.2
834.14 -203.19 2062.4
853.76 -206.64 2097.5
833.89 -200.55 2035.7
817.53 -195.38 1983.2
818.11 -194.30 1972.2
815.18 -192.40 1953.0
829.14 -194.49 1974.1
854.81 -199.28 2022.8
843.67 -195.48 1984.2
834.32 -192.15 1950.4
830.72 -190.16 1930.2
816.74 -185.85 1886.4
828.02 -187.29 1901.1
828.16 -186.21 1890.1
798.53 -178.50 1811.8
808.01 -178.51 1812.0
838.43 -184.16 1869.3
846.97 -184.97 1877.5
858.01 -186.31 1891.1
874.48 -188.81 1916.5
868.21 -186.39 1892.0
847.22 -180.87 1835.9
834.79 -177.22 1798.8
839.89 -177.31 1799.8
845.42 -177.49 1801.6
847.55 -176.96 1796.2
854.77 -177.49 1801.6
874.03 -180.51 1832.2
880.91 -180.94 1836.6
881.75 -180.14 1828.5
902.12 -183.32 1860.7
909.95 -183.93 1866.9
917.81 -184.53 1873.1
913.36 -182.67 1854.2
896.46 -178.35 1810.3
913.10 -180.72 1834.4
928.06 -182.73 1854.7
920.71 -180.35 1830.6
929.00 -181.04 1837.6
929.18 -180.15 1828.6
927.06 -178.82 1815.1
954.45 -183.18 1859.3
957.81 -182.90 1856.5
937.77 -178.18 1808.6
948.37 -179.29 1819.9
971.96 -182.84 1855.9
973.88 -182.30 1850.4
955.28 -177.94 1806.2
944.45 -175.07 1777.0
965.41 -178.08 1807.6
993.08 -182.30 1850.5
1008.63 -184.27 1870.4
1011.91 -183.98 1867.5
1008.04 -182.41 1851.5
1011.26 -182.12 1848.6
1025.99 -183.90 1866.7
1035.01 -184.65 1874.3
1019.40 -181.02 1837.4
995.40 -175.93 1785.8
1001.85 -176.25 1789.0
1017.11 -178.11 1807.9
1029.01 -179.37 1820.7
1058.66 -183.69 1864.6
1079.10 -186.39 1891.9
1088.25 -187.12 1899.3
1101.90 -188.61 1914.5
1084.69 -184.83 1876.1
1064.82 -180.64 1833.6
1108.04 -187.14 1899.5
919.69 -244.00 2413.2
909.46 -239.66 2370.2
928.03 -239.69 2370.6
818.09 -207.18 2049.0
854.97 -215.12 2127.6
842.55 -210.64 2083.2
831.05 -206.44 2041.7
829.17 -204.67 2024.2
829.49 -203.46 2012.2
825.18 -201.14 1989.3
815.77 -197.61 1954.4
830.11 -199.84 1976.5
857.34 -205.13 2028.8
839.98 -199.75 1975.6
826.31 -195.31 1931.6
858.88 -201.79 1995.7
876.70 -204.74 2024.9
860.44 -199.75 1975.5
835.58 -192.83 1907.1
811.62 -186.19 1841.5
805.12 -183.62 1816.1
821.63 -186.30 1842.5
848.44 -191.27 1891.6
856.20 -191.91 1898.0
867.70 -193.37 1912.5
880.49 -195.11 1929.7
868.44 -191.35 1892.5
858.31 -188.06 1859.9
856.83 -186.68 1846.3
862.88 -186.96 1849.0
869.35 -187.32 1852.6
879.67 -188.50 1864.3
894.29 -190.59 1884.9
901.71 -191.12 1890.2
896.66 -189.03 1869.5
894.98 -187.66 1856.0
913.22 -190.46 1883.7
909.33 -188.64 1865.6
905.79 -186.91 1848.5
923.73 -189.61 1875.3
930.30 -189.96 1878.7
921.79 -187.24 1851.8
910.48 -183.98 1819.6
905.76 -182.09 1800.8
917.57 -183.51 1815.0
929.44 -184.94 1829.1
939.56 -186.00 1839.6
956.99 -188.50 1864.3
948.48 -185.88 1838.4
933.45 -182.02 1800.2
950.48 -184.42 1824.0
977.77 -188.78 1867.0
982.50 -188.76 1866.8
968.59 -185.17 1831.4
963.89 -183.37 1813.6
978.35 -185.22 1831.9
999.48 -188.31 1862.4
998.03 -187.13 1850.7
983.72 -183.56 1815.5
1008.31 -187.26 1852.0
1042.14 -192.62 1905.1
1055.54 -194.18 1920.5
1062.73 -194.59 1924.5
1035.15 -188.65 1865.8
1000.05 -181.40 1794.1
1014.31 -183.14 1811.3
1036.45 -186.27 1842.3
1043.51 -186.68 1846.3
1068.29 -190.24 1881.5
1080.37 -191.52 1894.2
1079.13 -190.43 1883.4
1099.70 -193.19 1910.7
1089.96 -190.62 1885.3
1059.61 -184.49 1824.6
1093.77 -189.59 1875.0
914.60 -247.19 2383.6
901.70 -242.07 2334.2
905.52 -241.47 2328.5
891.53 -236.17 2277.3
821.84 -216.27 2085.5
834.14 -216.66 2089.2
857.00 -221.16 2132.6
830.79 -213.02 2054.1
833.11 -212.26 2046.8
843.70 -213.60 2059.7
852.45 -214.45 2067.9
858.56 -214.64 2069.7
842.05 -209.20 2017.3
850.74 -210.06 2025.6
860.63 -211.20 2036.6
828.50 -202.07 1948.6
804.98 -195.15 1881.8
825.63 -198.95 1918.4
846.05 -202.65 1954.1
832.82 -198.29 1912.1
836.19 -197.92 1908.5
839.54 -197.54 1904.8
837.63 -195.94 1889.4
860.78 -200.18 1930.3
870.66 -201.31 1941.2
860.11 -197.73 1906.7
860.93 -196.78 1897.6
862.53 -196.03 1890.3
863.27 -195.09 1881.2
866.05 -194.62 1876.7
858.74 -191.90 1850.4
857.64 -190.59 1837.8
853.94 -188.72 1819.8
855.68 -188.06 1813.5
885.99 -193.66 1867.4
907.52 -197.29 1902.4
927.04 -200.44 1932.8
950.58 -204.43 1971.2
945.17 -202.18 1949.6
915.68 -194.82 1878.7
900.77 -190.64 1838.3
908.58 -191.28 1844.5
926.57 -194.05 1871.2
930.02 -193.75 1868.4
931.68 -193.09 1862.0
941.81 -194.19 1872.5
941.64 -193.16 1862.6
940.53 -191.94 1850.9
945.70 -192.02 1851.6
958.15 -193.57 1866.5
952.40 -191.44 1846.0
938.30 -187.66 1809.6
959.49 -190.94 1841.2
991.43 -196.32 1893.1
968.38 -190.81 1840.0
923.70 -181.12 1746.5
933.78 -182.20 1756.9
967.83 -187.93 1812.2
990.33 -191.37 1845.3
988.37 -190.07 1832.8
1005.81 -192.50 1856.3
1066.21 -203.09 1958.3
1059.61 -200.87 1937.0
1027.98 -193.96 1870.3
1043.26 -195.92 1889.2
1025.76 -191.73 1848.8
983.36 -182.95 1764.2
990.75 -183.47 1769.2
1030.38 -189.93 1831.5
1053.59 -193.32 1864.2
1055.78 -192.84 1859.5
1042.66 -189.57 1828.0
1057.13 -191.34 1845.0
1094.02 -197.12 1900.8
1108.69 -198.87 1917.7
1104.42 -197.22 1901.7
1118.65 -198.87 1917.7
913.67 -253.11 2381.2
841.63 -228.52 2149.8
831.14 -224.19 2109.1
851.28 -228.12 2146.1
869.00 -231.36 2176.5
857.55 -226.83 2134.0
828.73 -217.81 2049.1
828.79 -216.44 2036.2
847.66 -219.96 2069.3
865.15 -223.09 2098.7
883.15 -226.31 2129.0
877.89 -223.56 2103.2
865.58 -219.07 2060.9
855.40 -215.16 2024.2
842.72 -210.68 1982.0
833.37 -207.08 1948.1
826.23 -204.07 1919.8
820.15 -201.35 1894.3
828.66 -202.23 1902.5
853.18 -206.98 1947.2
860.23 -207.47 1951.8
861.64 -206.59 1943.6
867.07 -206.69 1944.4
858.65 -203.49 1914.4
864.83 -203.78 1917.1
883.77 -207.05 1947.9
877.21 -204.35 1922.5
870.13 -201.56 1896.2
890.88 -205.20 1930.5
900.87 -206.34 1941.2
888.60 -202.40 1904.1
873.20 -197.80 1860.8
852.95 -192.15 1807.7
862.33 -193.20 1817.6
900.04 -200.55 1886.7
936.74 -207.60 1953.0
951.67 -209.78 1973.5
934.54 -204.90 1927.6
916.78 -199.94 1880.9
913.28 -198.12 1863.8
918.06 -198.11 1863.7
932.99 -200.28 1884.1
944.46 -201.68 1897.4
953.31 -202.52 1905.2
968.44 -204.67 1925.5
973.33 -204.65 1925.3
970.54 -203.02 1910.0
974.48 -202.81 1908.0
981.13 -203.16 1911.3
968.63 -199.57 1877.5
953.22 -195.41 1838.4
973.55 -198.58 1868.2
1006.00 -204.19 1920.9
981.16 -198.17 1864.3
941.19 -189.16 1779.6
958.82 -191.76 1804.1
960.12 -191.09 1797.7
948.69 -187.90 1767.7
977.77 -192.73 1813.2
1027.90 -201.65 1897.0
1067.41 -208.40 1960.6
1037.41 -201.58 1896.4
980.29 -189.58 1783.5
972.77 -187.25 1761.6
1000.91 -191.76 1804.0
1001.58 -191.00 1796.9
1018.28 -193.28 1818.4
1068.25 -201.84 1898.8
1077.87 -202.72 1907.1
1067.86 -199.92 1880.8
1042.94 -194.37 1828.5
1044.04 -193.69 1822.2
1085.35 -200.45 1885.8
1103.98 -202.97 1909.5
926.29 -275.92 2533.9
898.06 -265.62 2439.4
896.02 -263.17 2416.9
904.32 -263.76 2422.3
917.18 -265.67 2439.8
931.18 -267.87 2460.1
928.25 -265.22 2435.7
890.29 -252.65 2320.2
886.21 -249.80 2294.1
894.27 -250.40 2299.6
847.95 -235.85 2166.0
824.01 -227.69 2091.0
828.33 -227.39 2088.2
831.17 -226.68 2081.8
853.63 -231.31 2124.2
855.76 -230.40 2115.9
836.47 -223.77 2055.0
836.90 -222.47 2043.1
855.84 -226.07 2076.2
876.08 -229.97 2112.0
859.29 -224.16 2058.6
835.32 -216.56 1988.9
845.90 -217.96 2001.7
851.87 -218.16 2003.5
830.83 -211.48 1942.2
813.85 -205.91 1891.0
825.89 -207.71 1907.5
852.71 -213.18 1957.7
875.74 -217.64 1998.7
880.90 -217.63 1998.7
873.54 -214.55 1970.4
870.11 -212.47 1951.2
848.27 -205.94 1891.3
842.53 -203.37 1867.7
863.42 -207.22 1903.0
856.77 -204.46 1877.7
862.05 -204.55 1878.6
897.35 -211.73 1944.5
924.55 -216.93 1992.2
928.38 -216.62 1989.4
916.97 -212.78 1954.1
900.32 -207.77 1908.1
883.46 -202.76 1862.1
896.41 -204.61 1879.1
934.38 -212.13 1948.1
950.59 -214.65 1971.3
930.86 -209.07 1920.0
909.17 -203.11 1865.3
910.01 -202.22 1857.2
919.61 -203.28 1866.9
929.70 -204.44 1877.5
934.49 -204.42 1877.3
951.76 -207.12 1902.1
974.94 -211.07 1938.4
986.14 -212.40 1950.6
988.36 -211.79 1945.0
962.04 -205.11 1883.6
939.10 -199.20 1829.4
960.66 -202.75 1862.0
980.51 -205.91 1891.0
995.42 -208.00 1910.2
1021.02 -212.29 1949.6
1018.03 -210.63 1934.3
1002.88 -206.48 1896.2
1012.80 -207.50 1905.6
1005.87 -205.08 1883.4
971.55 -197.13 1810.3
976.61 -197.20 1811.0
994.01 -199.75 1834.5
997.69 -199.54 1832.5
1016.65 -202.37 1858.5
1011.25 -200.34 1839.9
980.75 -193.39 1776.0
986.69 -193.65 1778.4
1007.19 -196.75 1806.9
1043.36 -202.87 1863.1
1080.23 -209.08 1920.1
1073.24 -206.77 1898.9
1060.75 -203.43 1868.3
1034.33 -197.46 1813.4
1026.50 -195.08 1791.6
1061.29 -200.78 1843.9
1084.32 -204.22 1875.5
920.44 -274.85 2465.5
893.86 -265.07 2377.7
896.09 -263.92 2367.4
881.62 -257.89 2313.3
893.88 -257.97 2314.0
908.11 -260.33 2335.1
834.02 -235.94 2116.4
831.43 -233.67 2096.0
823.59 -229.96 2062.8
835.62 -231.82 2079.4
880.92 -242.82 2178.1
870.25 -236.84 2124.5
854.50 -231.09 2072.9
872.82 -234.57 2104.1
856.40 -228.73 2051.7
828.19 -219.83 1971.9
837.18 -220.85 1981.1
859.06 -225.24 2020.4
852.15 -222.08 1992.0
819.94 -212.40 1905.2
818.58 -210.77 1890.6
853.70 -218.51 1960.0
883.12 -224.70 2015.6
895.93 -226.62 2032.8
896.32 -225.39 2021.8
881.66 -220.41 1977.1
848.07 -210.79 1890.8
829.65 -205.03 1839.1
837.32 -205.74 1845.5
842.94 -205.95 1847.4
860.60 -209.07 1875.4
892.97 -215.72 1935.0
916.79 -220.23 1975.5
929.42 -222.03 1991.6
927.33 -220.30 1976.1
909.87 -214.97 1928.3
890.94 -209.35 1877.9
915.48 -213.94 1919.1
966.43 -224.63 2015.0
964.63 -223.01 2000.4
925.44 -212.80 1908.8
923.35 -211.19 1894.4
945.27 -215.06 1929.1
942.27 -213.25 1912.9
941.41 -211.94 1901.1
934.28 -209.24 1876.9
939.97 -209.42 1878.5
980.98 -217.43 1950.4
1010.16 -222.75 1998.1
1007.07 -220.94 1981.9
974.05 -212.61 1907.1
954.34 -207.26 1859.1
980.97 -211.97 1901.4
996.32 -214.21 1921.5
1006.23 -215.26 1930.9
1020.79 -217.30 1949.2
1004.83 -212.85 1909.3
1012.90 -213.50 1915.1
1052.75 -220.82 1980.8
1053.94 -220.00 1973.4
1028.75 -213.70 1916.9
1022.22 -211.32 1895.6
1024.14 -210.71 1890.1
1019.36 -208.73 1872.3
1031.23 -210.16 1885.1
1048.90 -212.75 1908.4
1043.08 -210.58 1888.9
1005.80 -202.10 1812.8
980.80 -196.16 1759.6
1031.95 -205.43 1842.8
1081.95 -214.40 1923.2
1049.99 -207.11 1857.8
1012.86 -198.87 1783.9
1034.61 -202.22 1813.9
1078.74 -209.89 1882.7
1121.14 -217.16 1947.9
916.73 -292.29 2562.3
887.79 -279.02 2445.9
931.97 -290.83 2549.5
908.68 -275.74 2417.2
912.76 -275.08 2411.4
888.84 -266.05 2332.2
869.90 -258.62 2267.1
883.98 -261.04 2288.3
889.14 -260.82 2286.4
890.31 -259.43 2274.2
898.70 -260.15 2280.5
890.26 -256.02 2244.3
876.85 -250.53 2196.2
845.80 -240.10 2104.7
849.75 -239.67 2101.0
893.80 -250.49 2195.9
878.33 -244.60 2144.2
865.66 -239.55 2100.0
886.70 -243.84 2137.6
879.17 -240.27 2106.3
860.33 -233.67 2048.4
863.69 -233.14 2043.8
879.86 -236.06 2069.4
898.88 -239.70 2101.3
886.97 -235.10 2061.0
855.92 -225.51 1976.9
862.62 -225.92 1980.5
892.89 -232.47 2037.9
906.55 -234.64 2056.9
903.36 -232.44 2037.6
887.12 -226.94 1989.4
866.18 -220.30 1931.2
860.95 -217.71 1908.5
878.62 -220.91 1936.6
895.18 -223.79 1961.8
896.49 -222.86 1953.6
914.84 -226.14 1982.4
932.07 -229.11 2008.4
937.19 -229.09 2008.3
957.11 -232.67 2039.6
959.32 -231.92 2033.1
932.51 -224.21 1965.5
952.52 -227.78 1996.7
974.81 -231.85 2032.4
940.64 -222.52 1950.6
948.22 -223.11 1955.8
994.17 -232.68 2039.7
1007.20 -234.48 2055.5
994.36 -230.27 2018.6
986.66 -227.29 1992.5
973.96 -223.20 1956.6
955.33 -217.80 1909.2
975.39 -221.22 1939.3
995.11 -224.54 1968.4
984.76 -221.07 1937.9
975.63 -217.91 1910.2
980.02 -217.78 1909.1
999.45 -220.98 1937.2
1007.54 -221.66 1943.1
1017.50 -222.74 1952.6
1026.10 -223.51 1959.3
999.51 -216.64 1899.1
1001.97 -216.11 1894.5
1021.69 -219.29 1922.3
1001.68 -213.95 1875.5
998.88 -212.32 1861.3
1019.16 -215.59 1889.9
1059.93 -223.14 1956.1
1089.07 -228.19 2000.3
1068.73 -222.86 1953.7
1057.77 -219.54 1924.5
1056.80 -218.31 1913.7
1021.50 -210.03 1841.2
990.76 -202.76 1777.4
1036.58 -211.16 1851.0
1114.89 -226.06 1981.7
1108.03 -223.64 1960.5
1051.45 -211.25 1851.9
1056.57 -211.31 1852.4
1115.11 -222.01 1946.2
921.85 -300.60 2576.6
887.67 -287.37 2463.2
904.42 -288.65 2474.1
916.27 -290.37 2488.8
898.45 -282.73 2423.4
907.45 -283.58 2430.7
929.78 -288.55 2473.3
933.64 -287.77 2466.6
907.02 -277.66 2379.9
896.03 -272.44 2335.2
919.58 -277.72 2380.5
906.93 -272.08 2332.1
888.63 -264.82 2269.9
879.52 -260.38 2231.9
856.67 -251.96 2159.7
851.56 -248.83 2132.8
827.42 -240.22 2059.0
823.07 -237.42 2035.1
857.59 -245.81 2106.9
874.34 -249.02 2134.5
893.10 -252.76 2166.5
893.33 -251.25 2153.6
865.54 -241.92 2073.6
872.05 -242.24 2076.3
899.85 -248.43 2129.4
877.69 -240.83 2064.3
856.42 -233.57 2002.0
867.49 -235.16 2015.7
859.66 -231.64 1985.5
850.50 -227.81 1952.7
866.73 -230.79 1978.2
902.31 -238.85 2047.3
917.64 -241.48 2069.9
898.64 -235.11 2015.2
878.59 -228.53 1958.9
881.59 -228.00 1954.3
906.76 -233.17 1998.6
932.94 -238.53 2044.6
944.79 -240.20 2058.9
948.79 -239.86 2056.0
951.10 -239.10 2049.4
948.32 -237.08 2032.1
961.10 -238.95 2048.1
989.22 -244.59 2096.5
985.57 -242.35 2077.3
966.42 -236.35 2025.9
948.34 -230.68 1977.2
947.76 -229.30 1965.4
989.65 -238.15 2041.3
1003.96 -240.31 2059.8
985.08 -234.54 2010.4
983.14 -232.85 1995.8
987.75 -232.72 1994.7
1000.77 -234.56 2010.5
1006.73 -234.73 2012.0
993.93 -230.55 1976.1
982.31 -226.69 1943.0
987.23 -226.66 1942.8
993.95 -227.05 1946.1
997.51 -226.71 1943.2
1019.28 -230.49 1975.6
1018.30 -229.12 1963.9
1018.18 -227.95 1953.9
1051.70 -234.29 2008.2
1046.99 -232.09 1989.4
1018.95 -224.77 1926.6
1007.45 -221.15 1895.5
1004.26 -219.38 1880.4
1020.29 -221.80 1901.2
1012.31 -219.01 1877.2
1023.67 -220.41 1889.2
1081.22 -231.69 1985.9
1086.15 -231.64 1985.5
1059.93 -224.98 1928.4
1043.57 -220.47 1889.8
1066.64 -224.29 1922.5
1095.16 -229.22 1964.7
1080.58 -225.12 1929.6
1097.57 -227.61 1950.9
1114.63 -230.08 1972.2
1080.20 -221.96 1902.5
1052.88 -215.36 1846.0
1080.73 -220.06 1886.2
903.09 -307.72 2580.3
897.82 -303.67 2546.3
917.33 -308.01 2582.7
915.91 -305.30 2560.0
913.04 -302.16 2533.6
927.67 -304.81 2555.8
919.88 -300.10 2516.4
895.08 -289.95 2431.3
890.27 -286.38 2401.3
908.95 -290.36 2434.7
919.04 -291.56 2444.7
910.52 -286.88 2405.5
896.51 -280.54 2352.4
899.35 -279.53 2343.9
921.12 -284.37 2384.5
904.89 -277.50 2326.9
870.28 -265.12 2223.0
848.32 -256.73 2152.7
822.37 -247.25 2073.2
810.89 -240.65 2017.9
831.42 -245.16 2055.7
862.61 -252.74 2119.3
875.24 -254.82 2136.7
873.17 -252.62 2118.2
852.35 -245.05 2054.8
836.99 -239.14 2005.2
858.36 -243.73 2043.7
883.76 -249.40 2091.3
856.86 -240.34 2015.3
832.35 -232.05 1945.8
840.55 -232.92 1953.1
846.01 -233.03 1954.0
850.28 -232.81 1952.2
874.09 -237.92 1995.0
918.52 -248.54 2084.0
934.73 -251.45 2108.4
917.04 -245.25 2056.5
902.78 -240.04 2012.8
909.99 -240.57 2017.2
935.28 -245.85 2061.4
960.77 -251.11 2105.6
977.31 -253.99 2129.7
983.96 -254.28 2132.2
979.74 -251.78 2111.2
969.11 -247.66 2076.7
961.29 -244.30 2048.5
969.04 -244.92 2053.7
988.31 -248.43 2083.1
990.59 -247.65 2076.5
985.09 -244.94 2053.8
999.35 -247.15 2072.4
1021.94 -251.39 2107.9
1015.91 -248.57 2084.3
981.34 -238.85 2002.7
966.64 -234.03 1962.4
991.48 -238.79 2002.2
1024.90 -245.55 2058.9
1012.27 -241.27 2023.0
980.28 -232.44 1949.0
987.46 -232.94 1953.2
1011.32 -237.35 1990.2
1022.66 -238.79 2002.3
1030.42 -239.39 2007.3
1047.77 -242.20 2030.8
1042.32 -239.73 2010.2
1024.83 -234.54 1966.6
1042.69 -237.44 1991.0
1056.93 -239.50 2008.2
1045.67 -235.79 1977.1
1048.28 -235.22 1972.4
1060.24 -236.75 1985.2
1064.25 -236.50 1983.1
1042.29 -230.51 1932.8
1020.59 -224.63 1883.5
1047.20 -229.39 1923.4
1055.82 -230.18 1930.1
1030.94 -223.69 1875.7
1041.89 -225.01 1886.7
1092.93 -234.93 1969.9
1112.41 -236.90 1986.4
1094.39 -231.99 1945.3
1076.69 -227.19 1905.0
1060.31 -222.71 1867.5
1055.60 -220.72 1850.7
1100.27 -229.01 1920.3
908.09 -316.15 2594.6
896.25 -309.73 2541.9
909.43 -311.99 2560.4
908.63 -309.46 2539.7
907.40 -306.82 2518.0
920.58 -304.70 2500.6
918.35 -301.83 2477.1
932.68 -304.42 2498.3
939.42 -304.50 2498.9
922.59 -297.00 2437.4
900.52 -287.92 2362.9
881.67 -279.99 2297.8
880.78 -277.83 2280.1
888.44 -278.38 2284.6
880.19 -273.97 2248.4
867.40 -268.21 2201.1
848.53 -260.66 2139.1
835.64 -255.03 2093.0
834.39 -253.01 2076.4
856.54 -258.06 2117.8
890.48 -266.58 2187.7
879.15 -261.52 2146.2
852.87 -252.11 2069.0
846.80 -248.75 2041.4
844.81 -246.62 2023.9
858.90 -249.19 2045.0
878.11 -253.20 2077.9
879.18 -251.96 2067.8
881.38 -251.06 2060.4
885.90 -250.83 2058.5
888.04 -249.93 2051.1
868.71 -243.03 1994.5
869.47 -241.81 1984.4
912.27 -252.22 2069.9
929.66 -255.52 2097.0
915.18 -250.08 2052.3
901.73 -244.98 2010.5
910.16 -245.85 2017.6
935.04 -251.13 2060.9
982.39 -262.34 2153.0
1017.03 -268.54 2203.8
1003.75 -263.56 2162.9
1002.49 -261.76 2148.2
1005.80 -261.17 2143.4
1004.42 -259.38 2128.7
1013.20 -260.22 2135.6
998.90 -255.15 2094.0
977.10 -248.24 2037.2
983.13 -248.42 2038.7
997.40 -250.68 2057.3
1021.32 -255.33 2095.4
1014.34 -252.24 2070.1
979.58 -242.32 1988.6
988.15 -243.16 1995.5
1021.99 -250.17 2053.1
1007.57 -245.37 2013.7
977.36 -236.78 1943.2
986.77 -237.84 1951.9
991.26 -237.70 1950.7
982.62 -234.43 1923.9
994.75 -236.13 1937.8
1018.79 -240.62 1974.7
1043.44 -245.21 2012.3
1057.20 -247.21 2028.7
1069.03 -245.09 2011.4
1067.95 -243.66 1999.6
1058.83 -240.41 1973.0
1059.03 -239.30 1963.9
1060.61 -238.51 1957.4
1055.03 -236.13 1937.8
1029.33 -229.28 1881.6
1022.07 -226.59 1859.6
1051.26 -231.97 1903.7
1070.00 -235.00 1928.6
1067.05 -233.26 1914.3
1083.97 -235.86 1935.7
1096.57 -237.51 1949.1
1109.22 -239.14 1962.6
1125.85 -241.62 1982.9
1127.78 -240.93 1977.3
924.99 -319.42 2566.8
925.13 -312.72 2512.9
911.19 -305.85 2457.7
914.36 -304.79 2449.2
935.66 -309.74 2489.0
935.70 -307.63 2472.0
912.65 -298.01 2394.7
892.46 -289.45 2325.9
877.31 -282.62 2271.1
870.92 -278.69 2239.5
870.17 -276.61 2222.8
865.70 -273.38 2196.8
861.48 -270.27 2171.8
863.40 -269.11 2162.5
872.32 -270.14 2170.7
903.98 -278.15 2235.1
908.59 -277.79 2232.2
872.14 -264.95 2129.1
856.80 -258.66 2078.5
859.89 -257.97 2073.0
871.37 -259.79 2087.6
899.06 -266.39 2140.6
896.44 -263.98 2121.3
877.01 -256.68 2062.6
903.03 -262.70 2111.0
930.44 -269.04 2162.0
945.44 -271.74 2183.6
936.33 -267.52 2149.7
901.14 -255.95 2056.7
909.63 -256.84 2063.9
945.12 -265.30 2131.8
947.32 -264.37 2124.4
919.38 -255.09 2049.8
911.56 -251.46 2020.7
929.05 -254.83 2047.7
968.52 -264.14 2122.6
1002.51 -271.87 2184.6
1000.11 -269.69 2167.2
992.20 -266.06 2138.0
997.19 -265.92 2136.8
990.77 -262.74 2111.3
980.42 -258.57 2077.8
991.22 -259.99 2089.2
979.39 -255.49 2053.1
981.58 -254.68 2046.5
1011.36 -261.00 2097.3
988.47 -253.72 2038.9
974.47 -248.80 1999.3
1018.02 -258.54 2077.6
1035.10 -261.50 2101.3
1002.89 -252.04 2025.3
998.70 -249.67 2006.3
1016.66 -252.85 2031.8
1019.09 -252.15 2026.2
1032.26 -254.09 2041.8
1040.98 -254.94 2048.6
990.51 -241.34 1939.4
965.00 -233.94 1879.9
1005.32 -242.49 1948.6
1050.04 -252.01 2025.1
1095.21 -260.25 2091.3
1076.90 -249.72 2006.6
1061.60 -244.98 1968.6
1063.67 -244.29 1963.0
1059.05 -242.07 1945.2
1041.00 -236.82 1903.0
1043.37 -236.24 1898.3
1061.58 -239.23 1922.4
1068.78 -239.73 1926.4
1068.25 -238.49 1916.5
1090.99 -242.44 1948.2
889.19 -325.15 2559.5
883.63 -320.73 2524.7
895.74 -322.73 2540.4
903.60 -323.18 2544.0
913.81 -324.47 2554.1
912.27 -321.59 2531.5
926.22 -324.18 2551.8
931.72 -323.79 2548.8
898.45 -310.03 2440.5
872.27 -298.89 2352.8
874.51 -297.58 2342.4
893.82 -302.05 2377.6
906.26 -304.15 2394.2
895.42 -298.47 2349.5
875.13 -289.74 2280.7
861.32 -283.25 2229.7
880.03 -287.48 2262.9
903.96 -293.34 2309.1
906.97 -292.38 2301.5
909.94 -291.42 2294.0
883.05 -280.97 2211.7
863.56 -273.00 2148.9
883.63 -277.55 2184.8
878.39 -274.15 2158.0
868.51 -269.35 2120.2
880.04 -271.21 2134.9
881.35 -269.91 2124.7
890.26 -270.95 2132.8
888.05 -268.61 2114.4
855.21 -257.09 2023.7
842.96 -251.86 1982.6
876.61 -260.33 2049.2
914.88 -270.05 2125.8
938.87 -275.48 2168.5
953.13 -278.00 2188.3
939.96 -272.53 2145.3
920.60 -265.35 2088.8
929.97 -266.48 2097.7
953.13 -271.53 2137.4
947.19 -268.28 2111.8
937.86 -264.11 2079.0
955.48 -267.53 2106.0
958.37 -266.82 2100.3
955.01 -264.38 2081.1
975.29 -268.48 2113.4
989.85 -270.96 2132.9
986.00 -268.41 2112.9
970.67 -262.78 2068.5
964.90 -259.78 2044.9
980.31 -262.49 2066.2
962.87 -256.42 2018.4
958.12 -253.77 1997.6
1001.18 -263.75 2076.2
992.11 -259.97 2046.4
979.00 -255.17 2008.6
1023.00 -265.22 2087.8
1039.23 -268.01 2109.7
1005.72 -258.01 2031.0
996.67 -254.36 2002.2
1011.06 -256.69 2020.6
1032.67 -260.83 2053.2
1067.41 -268.22 2111.4
1098.34 -274.58 2161.4
1071.16 -266.43 2097.3
1001.51 -247.85 1951.0
1004.16 -247.25 1946.3
1120.96 -273.27 2151.1
1108.30 -268.85 2116.3
1136.12 -271.56 2137.7
1066.05 -251.14 1976.9
1034.99 -242.65 1910.1
1093.01 -255.03 2007.6
1136.14 -263.84 2076.9
1082.37 -250.17 1969.3
1050.26 -241.61 1901.9
1073.82 -245.87 1935.5
1093.15 -249.14 1961.1
884.26 -325.10 2507.9
888.38 -324.23 2501.2
896.15 -324.69 2504.8
880.37 -316.68 2443.0
877.52 -313.40 2417.6
909.98 -322.69 2489.3
907.11 -319.40 2464.0
889.96 -311.18 2400.5
899.26 -312.24 2408.7
894.96 -308.61 2380.7
883.50 -302.57 2334.1
885.62 -301.23 2323.8
880.93 -297.61 2295.9
872.17 -292.67 2257.8
894.90 -298.30 2301.2
923.97 -305.95 2360.2
921.76 -301.23 2323.8
876.91 -284.71 2196.3
864.05 -278.73 2150.2
891.57 -285.76 2204.4
894.61 -284.91 2197.9
893.48 -282.75 2181.2
895.30 -281.54 2171.9
886.04 -276.89 2136.0
878.54 -272.84 2104.7
858.58 -264.99 2044.2
866.57 -265.82 2050.6
897.12 -273.51 2109.9
909.56 -275.63 2126.3
925.61 -278.80 2150.7
933.48 -279.49 2156.0
932.64 -277.57 2141.3
938.11 -277.55 2141.1
935.97 -275.28 2123.6
928.10 -271.38 2093.5
935.48 -271.94 2097.8
935.96 -270.51 2086.8
935.57 -268.84 2073.9
952.35 -272.10 2099.1
953.98 -271.02 2090.7
972.97 -274.85 2120.3
1014.14 -284.87 2197.6
1015.08 -283.54 2187.3
997.49 -277.08 2137.5
1017.24 -281.01 2167.8
1043.89 -286.78 2212.3
1039.22 -283.94 2190.4
998.54 -271.34 2093.2
959.15 -259.23 1999.8
970.71 -260.94 2013.0
1016.11 -271.69 2095.9
1058.38 -281.48 2171.5
1079.77 -284.15 2192.0
1032.78 -270.36 2085.6
1009.69 -262.94 2028.4
1015.24 -263.02 2029.0
1028.38 -265.05 2044.7
1062.20 -272.36 2101.1
1092.65 -278.74 2150.3
1093.02 -277.42 2140.1
1049.79 -265.10 2045.1
1054.00 -264.82 2042.9
1119.73 -275.80 2127.6
1112.99 -271.46 2094.1
1116.76 -269.75 2080.9
1058.71 -254.50 1963.3
1031.89 -246.86 1904.4
1118.19 -256.47 1978.4
875.28 -340.76 2577.2
899.09 -342.19 2588.0
898.52 -339.44 2567.2
907.75 -340.41 2574.5
909.38 -338.53 2560.3
910.59 -336.52 2545.1
890.21 -326.62 2470.3
890.12 -324.26 2452.4
924.03 -334.22 2527.7
930.84 -334.32 2528.4
922.13 -328.87 2487.3
912.53 -323.19 2444.3
889.11 -312.72 2365.1
895.89 -312.95 2366.8
917.52 -318.32 2407.5
886.36 -305.43 2310.0
852.60 -291.83 2207.1
860.82 -292.68 2213.5
874.86 -295.48 2234.7
904.27 -303.41 2294.7
913.08 -304.36 2301.9
880.70 -291.66 2205.8
879.35 -289.33 2188.2
909.55 -297.35 2248.9
915.31 -297.33 2248.7
895.86 -289.17 2187.0
879.92 -282.24 2134.6
874.76 -278.83 2108.8
871.02 -275.91 2086.7
862.56 -271.55 2053.7
883.32 -276.38 2090.3
923.27 -287.12 2171.5
941.32 -290.95 2200.5
949.68 -291.77 2206.7
950.57 -290.29 2195.5
957.35 -290.63 2198.0
967.73 -292.04 2208.7
956.92 -287.08 2171.2
939.11 -280.09 2118.3
949.37 -281.50 2129.0
955.60 -281.71 2130.6
929.59 -272.47 2060.7
921.32 -268.50 2030.7
950.01 -275.29 2082.0
997.13 -287.31 2172.9
1032.58 -295.85 2237.5
1028.59 -293.06 2216.4
1007.30 -285.40 2158.5
1022.45 -288.09 2178.8
1044.03 -292.56 2212.6
1033.41 -288.00 2178.1
1034.60 -286.77 2168.8
1039.19 -286.48 2166.7
1008.83 -276.62 2092.0
1014.97 -276.81 2093.5
1062.88 -288.34 2180.7
1085.38 -289.81 2191.9
1058.98 -281.29 2127.4
1060.74 -280.30 2119.9
1049.97 -276.02 2087.6
1060.13 -277.26 2097.0
1096.41 -285.29 2157.7
1100.86 -284.99 2155.4
1067.66 -275.00 2079.9
1083.77 -277.75 2100.6
898.79 -359.52 2666.7
874.70 -347.21 2575.4
890.02 -345.38 2561.9
893.99 -344.35 2554.3
908.47 -347.36 2576.5
900.47 -341.78 2535.2
891.61 -335.97 2492.1
887.92 -332.17 2463.9
903.06 -335.42 2488.0
929.54 -342.81 2542.8
929.19 -340.27 2524.0
906.68 -329.70 2445.6
879.99 -317.77 2357.1
875.23 -313.88 2328.2
901.60 -321.12 2381.9
923.61 -326.72 2423.5
892.49 -313.58 2326.0
842.69 -294.09 2181.5
849.28 -292.47 2169.4
878.17 -300.43 2228.4
901.10 -306.26 2271.7
885.96 -299.16 2219.0
862.44 -289.34 2146.2
866.87 -288.96 2143.3
887.36 -293.90 2180.0
885.44 -291.41 2161.6
875.50 -286.33 2123.9
876.41 -284.83 2112.8
878.03 -283.59 2103.5
874.23 -280.62 2081.5
879.98 -280.73 2082.3
906.70 -287.49 2132.5
931.29 -293.50 2177.1
945.49 -296.18 2196.9
964.49 -300.32 2227.7
986.80 -305.44 2265.6
969.44 -298.29 2212.6
931.43 -284.91 2113.3
945.68 -287.58 2133.1
990.33 -299.40 2220.8
1010.17 -303.63 2252.2
997.08 -297.98 2210.3
975.19 -289.77 2149.4
994.24 -293.75 2178.9
990.64 -291.04 2158.8
976.14 -285.17 2115.2
1011.17 -293.75 2178.9
1027.16 -296.74 2201.1
1024.27 -294.26 2182.7
1028.49 -293.85 2179.7
1021.63 -290.30 2153.3
1027.05 -290.25 2153.0
1041.05 -292.62 2170.5
1018.47 -284.73 2112.0
1009.50 -280.72 2082.2
1041.28 -288.01 2136.4
1050.57 -289.04 2144.0
1041.90 -285.15 2115.1
1052.49 -286.54 2125.4
1064.00 -288.17 2137.5
1085.33 -292.42 2169.1
1095.64 -293.68 2178.4
1074.17 -286.45 2124.7
1079.02 -286.27 2123.4
1109.14 -292.77 2171.6
1103.19 -289.73 2149.1
1087.58 -284.19 2108.0
1126.18 -292.81 2171.9
870.12 -360.28 2622.0
887.88 -364.79 2654.8
902.55 -359.66 2617.5
892.03 -352.82 2567.7
915.99 -359.61 2617.1
914.78 -356.50 2594.4
893.22 -345.55 2514.8
882.98 -339.12 2468.0
875.88 -333.97 2430.5
884.85 -334.98 2437.8
905.42 -340.33 2476.8
914.86 -341.46 2485.0
900.88 -333.89 2430.0
885.27 -325.83 2371.3
889.27 -325.04 2365.6
897.81 -325.92 2371.9
901.78 -325.13 2366.2
902.88 -323.33 2353.1
886.05 -315.17 2293.7
861.03 -304.23 2214.1
857.34 -300.92 2190.0
863.00 -300.91 2189.9
860.97 -298.24 2170.5
874.66 -301.02 2190.7
880.31 -301.01 2190.6
865.63 -290.37 2113.2
900.57 -300.19 2184.7
890.21 -294.88 2146.0
881.21 -290.09 2111.2
890.87 -291.46 2121.1
910.23 -295.96 2153.9
906.82 -293.06 2132.8
905.66 -290.91 2117.1
942.46 -300.91 2189.9
983.13 -312.01 2270.7
995.23 -313.97 2285.0
967.57 -303.44 2208.3
953.17 -297.17 2162.7
991.25 -307.23 2235.9
1017.92 -313.66 2282.7
1021.24 -312.87 2276.9
1024.94 -312.20 2272.0
1020.83 -309.16 2250.0
1017.02 -306.26 2228.9
991.19 -296.80 2160.0
986.26 -293.66 2137.2
1030.10 -305.00 2219.7
1023.93 -301.49 2194.1
998.68 -292.43 2128.2
1018.46 -296.58 2158.4
1027.30 -297.52 2165.3
1018.22 -293.29 2134.5
1015.87 -291.03 2118.0
1010.85 -288.04 2096.2
1020.47 -289.22 2104.9
1029.24 -290.16 2111.7
1012.28 -283.87 2065.9
1011.78 -282.23 2054.0
1031.49 -286.23 2083.0
1040.26 -287.16 2089.8
1057.94 -290.52 2114.3
1087.75 -297.17 2162.7
1086.86 -295.40 2149.8
1076.47 -291.09 2118.4
1091.68 -293.70 2137.4
1111.95 -297.64 2166.1
1123.69 -299.27 2178.0
1270.32 -325.25 2367.1
883.51 -369.84 2641.7
874.80 -363.38 2595.5
878.29 -362.04 2586.0
881.10 -360.45 2574.6
891.60 -362.00 2585.7
904.76 -364.60 2604.3
913.08 -365.23 2608.8
898.67 -356.83 2548.8
893.94 -352.35 2516.8
898.73 -351.68 2512.0
886.70 -344.47 2460.5
890.32 -343.41 2452.9
893.90 -342.35 2445.3
885.46 -336.72 2405.2
897.16 -338.79 2419.9
907.19 -340.20 2430.0
885.86 -329.91 2356.5
867.35 -320.80 2291.4
886.32 -325.59 2325.6
902.96 -329.46 2353.3
906.85 -328.66 2347.6
903.53 -325.27 2323.4
875.15 -312.97 2235.5
852.92 -303.01 2164.4
858.51 -303.00 2164.3
878.07 -307.90 2199.3
907.40 -316.13 2258.1
898.32 -310.96 2221.1
875.24 -301.04 2150.3
911.98 -311.69 2226.3
952.08 -323.35 2309.6
947.70 -319.85 2284.6
920.29 -308.67 2204.8
911.73 -303.91 2170.8
928.10 -307.47 2196.2
918.97 -302.59 2161.3
908.90 -297.46 2124.7
934.73 -304.07 2171.9
966.29 -312.45 2231.8
969.98 -311.78 2227.0
979.62 -313.01 2235.8
999.69 -317.55 2268.2
1015.08 -320.55 2289.6
1020.05 -320.25 2287.5
1002.68 -312.97 2235.5
985.08 -305.71 2183.7
988.97 -305.17 2179.8
994.08 -305.00 2178.6
996.69 -304.07 2172.0
1021.30 -309.83 2213.1
1059.45 -319.61 2282.9
1048.39 -314.52 2246.5
1011.04 -301.63 2154.5
1020.28 -302.72 2162.3
1027.43 -303.17 2165.5
1016.64 -298.36 2131.2
1019.01 -297.44 2124.6
1020.04 -296.14 2115.3
1012.82 -292.47 2089.1
1003.74 -288.31 2059.3
1005.00 -287.14 2051.0
1027.72 -292.09 2086.3
1074.79 -303.87 2170.5
1095.82 -306.60 2190.0
1092.79 -304.18 2172.7
1117.10 -306.21 2187.2
1085.81 -296.13 2115.2
1228.61 -330.07 2357.7
1261.99 -329.21 2351.5
1242.24 -322.50 2303.6
1263.90 -326.56 2332.6
1278.56 -328.77 2348.4
867.82 -370.00 2594.8
881.79 -373.07 2616.3
894.61 -372.76 2614.1
892.29 -368.99 2587.7
898.94 -368.97 2587.6
902.31 -367.61 2578.0
903.00 -365.18 2561.0
909.57 -365.16 2560.8
917.14 -365.53 2563.4
908.26 -359.38 2520.3
893.42 -350.99 2461.5
878.30 -342.60 2402.7
873.53 -338.34 2372.8
886.88 -341.11 2392.2
903.43 -345.06 2419.9
887.67 -336.70 2361.3
881.11 -331.93 2327.8
911.11 -340.89 2390.7
924.69 -343.64 2409.9
924.79 -341.36 2394.0
930.19 -341.07 2391.9
911.02 -331.83 2327.1
876.27 -317.07 2223.6
868.84 -312.33 2190.4
875.23 -312.58 2192.1
890.49 -315.98 2216.0
914.03 -322.25 2260.0
924.67 -323.93 2271.7
934.24 -325.21 2280.7
947.63 -327.80 2298.8
958.43 -329.46 2310.5
946.74 -323.42 2268.2
927.57 -314.92 2208.5
934.76 -315.41 2212.0
937.70 -314.47 2205.4
936.31 -312.10 2188.8
940.72 -311.68 2185.8
950.63 -313.08 2195.6
952.66 -311.88 2187.2
962.21 -313.15 2196.1
987.39 -319.45 2240.3
1006.33 -323.67 2269.9
1019.34 -325.95 2285.9
1009.27 -320.87 2250.2
1015.36 -320.95 2250.8
1043.99 -328.11 2301.0
1042.77 -325.86 2285.3
1040.65 -323.37 2267.8
1039.70 -321.26 2253.0
1052.04 -323.25 2267.0
1073.66 -328.06 2300.7
1070.14 -325.18 2280.5
1064.42 -321.66 2255.8
1057.73 -317.90 2229.4
1029.15 -307.63 2157.4
1014.42 -301.58 2115.0
1021.90 -302.17 2119.1
1019.88 -299.96 2103.6
1044.29 -305.51 2142.6
1087.91 -314.92 2208.5
1173.16 -336.06 2356.8
1183.84 -337.36 2365.9
1176.98 -330.27 2316.2
1177.70 -328.80 2305.9
1234.00 -335.99 2356.3
1226.90 -330.78 2319.8
1239.99 -332.68 2333.1
1243.32 -331.95 2328.0
1272.98 -333.40 2338.1
876.67 -389.63 2683.7
882.31 -383.02 2638.1
897.85 -380.91 2623.6
896.51 -377.48 2600.0
903.52 -377.59 2600.8
903.65 -374.85 2581.9
901.06 -371.02 2555.5
909.61 -371.81 2560.9
918.51 -372.73 2567.3
907.29 -365.53 2517.7
890.42 -356.17 2453.2
878.36 -348.85 2402.8
877.36 -346.00 2383.2
878.67 -344.10 2370.0
883.74 -343.68 2367.1
889.48 -343.52 2366.1
901.52 -345.79 2381.7
922.46 -351.41 2420.4
926.88 -350.71 2415.6
907.35 -341.02 2348.9
891.47 -332.81 2292.3
900.97 -334.14 2301.4
897.43 -330.63 2277.3
881.72 -322.72 2222.8
878.99 -319.63 2201.6
882.82 -318.95 2196.9
893.30 -320.67 2208.7
895.61 -319.45 2200.3
897.89 -318.24 2191.9
909.18 -320.21 2205.6
920.15 -322.05 2218.2
936.14 -325.61 2242.7
945.71 -326.91 2251.7
955.31 -328.20 2260.6
963.00 -328.83 2264.9
963.31 -326.94 2251.9
970.99 -327.56 2256.2
976.33 -327.39 2255.0
974.93 -324.98 2238.4
987.77 -327.31 2254.4
1016.68 -334.90 2306.7
1004.01 -328.80 2264.7
985.11 -320.73 2209.1
1003.69 -324.89 2237.8
1038.29 -334.16 2301.6
1080.53 -345.77 2381.6
1070.93 -338.83 2333.8
1050.60 -330.53 2276.6
1047.13 -327.59 2256.4
1052.37 -327.41 2255.1
1068.56 -330.60 2277.1
1083.14 -333.27 2295.5
1079.94 -330.47 2276.2
1055.31 -321.18 2212.2
1030.41 -311.91 2148.3
1028.49 -309.65 2132.8
1034.72 -309.86 2134.2
1066.58 -317.70 2188.3
1109.06 -326.88 2251.5
