ply
format ascii 1.0
element vertex 2216
property float x
property float y
property float z
end_header
1025.71 394.50 1521.7
1022.99 391.95 1511.8
1045.51 399.05 1539.2
1049.94 399.22 1539.8
1035.04 392.06 1512.2
1033.33 389.94 1504.0
1038.81 390.53 1506.3
1043.73 390.91 1507.8
1041.40 388.58 1498.8
1030.08 382.93 1477.0
1031.59 382.07 1473.7
1038.70 383.28 1478.4
1032.86 379.73 1464.7
1021.88 374.31 1443.8
993.83 362.71 1399.0
965.04 350.92 1353.6
965.14 349.69 1348.8
989.19 357.11 1377.4
1015.05 365.13 1408.3
1018.65 365.11 1408.3
999.82 357.08 1377.3
968.21 344.56 1329.0
949.71 336.78 1299.0
943.84 333.51 1286.4
940.25 331.07 1277.0
918.59 322.31 1243.2
909.05 317.85 1226.0
939.20 327.25 1262.2
946.04 328.49 1267.0
939.97 325.25 1254.5
937.39 323.24 1246.8
922.99 317.18 1223.4
932.15 319.23 1231.3
937.18 319.86 1233.7
931.54 316.85 1222.1
931.80 315.86 1218.3
915.95 309.44 1193.6
901.20 303.44 1170.4
905.55 303.87 1172.1
906.29 303.11 1169.1
915.44 305.15 1177.0
951.75 316.19 1219.6
972.48 322.01 1242.1
974.52 321.62 1240.6
968.67 318.64 1229.0
936.04 306.90 1183.7
925.79 302.54 1167.0
945.99 308.14 1188.5
959.54 311.54 1201.7
974.36 315.33 1216.3
972.64 313.76 1210.2
956.75 307.64 1186.6
967.29 310.03 1195.8
1007.51 321.89 1241.6
1018.78 324.45 1251.5
1017.67 323.07 1246.1
1010.96 319.92 1234.0
1021.64 322.28 1243.1
1089.10 342.48 1321.0
1126.19 353.04 1361.7
1142.95 483.55 1884.0
1097.78 462.47 1801.8
1085.95 455.55 1774.9
1100.60 459.74 1791.2
1096.84 456.25 1777.6
1074.50 445.09 1734.1
1057.15 436.07 1699.0
1047.95 430.49 1677.2
1040.22 425.55 1658.0
1022.00 416.37 1622.2
1009.38 409.55 1595.6
1011.34 408.66 1592.2
1012.23 407.36 1587.1
1011.51 405.42 1579.6
1004.95 401.17 1563.0
1001.50 398.19 1551.4
1000.13 396.05 1543.1
1004.60 396.24 1543.8
1009.06 396.42 1544.5
1001.73 391.98 1527.2
1013.15 394.89 1538.5
1027.30 398.83 1553.9
1030.69 398.59 1552.9
1041.67 401.27 1563.4
1038.55 398.51 1552.6
1016.84 388.68 1514.3
1015.22 386.57 1506.1
1032.21 391.53 1525.4
1047.61 395.85 1542.3
1044.34 393.11 1531.6
1024.99 384.37 1497.6
1018.27 380.41 1482.1
1038.70 386.58 1506.2
1059.22 392.74 1530.2
1043.52 385.48 1501.9
1018.77 374.94 1460.8
1017.44 373.06 1453.5
1021.14 373.04 1453.4
1002.84 365.01 1422.1
978.78 354.94 1382.9
967.61 349.61 1362.1
956.93 344.49 1342.2
959.85 344.29 1341.4
986.75 352.67 1374.0
993.73 353.88 1378.8
980.06 347.76 1354.9
974.36 344.51 1342.2
958.81 337.80 1316.1
944.32 331.52 1291.6
941.92 329.50 1283.8
955.16 332.96 1297.2
950.98 330.34 1287.0
942.68 326.31 1271.3
973.50 335.81 1308.3
959.32 329.77 1284.8
930.96 318.91 1242.5
948.37 323.76 1261.4
954.05 324.57 1264.6
941.99 319.37 1244.3
923.93 312.18 1216.3
929.54 313.01 1219.5
941.70 316.03 1231.3
940.78 314.65 1225.9
941.62 313.87 1222.9
934.07 310.31 1209.0
922.27 305.37 1189.7
912.20 301.03 1172.8
928.01 305.22 1189.2
947.49 310.60 1210.1
947.05 309.43 1205.6
970.87 316.17 1231.8
972.89 315.79 1230.4
951.13 307.72 1198.9
957.97 308.92 1203.6
977.05 314.05 1223.6
996.81 319.37 1244.3
1011.11 322.90 1258.1
1011.29 321.92 1254.2
976.30 309.79 1207.0
962.79 304.52 1186.5
1029.70 324.65 1264.9
1091.27 342.97 1336.3
1116.40 349.76 1362.7
1145.38 355.46 1384.9
1129.23 474.95 1869.4
1090.26 456.60 1797.1
1087.61 453.56 1785.1
1112.46 461.95 1818.2
1091.89 451.50 1777.0
1055.25 434.52 1710.2
1047.19 429.39 1690.0
1043.69 426.17 1677.4
1025.64 417.06 1641.5
1010.04 409.02 1609.9
1015.17 409.41 1611.4
1025.52 411.89 1621.1
1017.04 406.82 1601.2
1007.95 401.54 1580.4
1014.60 402.55 1584.4
1015.97 401.47 1580.1
1009.37 397.26 1563.6
1002.71 393.06 1547.0
1009.84 394.28 1551.8
1017.00 395.50 1556.6
993.05 384.66 1514.0
987.77 381.11 1500.0
1011.03 388.55 1529.3
1024.11 392.04 1543.0
1029.11 392.42 1544.5
1019.42 387.22 1524.0
1011.83 382.86 1506.9
1023.87 385.92 1518.9
1025.53 385.06 1515.6
1025.52 383.59 1509.8
1033.76 385.20 1516.1
1027.09 381.27 1500.6
1004.30 371.40 1461.8
1006.36 370.76 1459.3
1040.17 381.79 1502.7
1038.94 379.91 1495.3
1017.53 370.70 1459.0
1017.87 369.45 1454.1
1022.70 369.83 1455.6
1007.22 362.89 1428.3
989.37 355.16 1397.9
985.59 352.51 1387.4
966.43 344.40 1355.5
960.82 341.16 1342.8
973.45 344.40 1355.5
967.80 341.17 1342.8
955.21 335.52 1320.6
951.17 332.91 1310.3
962.67 335.73 1321.4
974.20 338.55 1332.5
961.43 332.93 1310.4
963.68 332.54 1308.8
977.57 336.15 1323.0
987.42 338.35 1331.7
1000.81 341.74 1345.0
968.51 329.56 1297.1
928.99 315.02 1239.9
933.45 315.44 1241.5
939.68 316.45 1245.5
928.17 311.51 1226.1
918.38 307.17 1209.0
931.10 310.37 1221.6
953.39 316.72 1246.6
961.44 318.32 1252.8
962.33 317.54 1249.8
954.82 314.00 1235.9
947.26 310.47 1222.0
942.06 307.74 1211.2
936.21 304.81 1199.7
932.14 302.48 1190.5
934.10 302.12 1189.1
961.54 309.97 1220.0
986.65 317.02 1247.8
989.30 316.83 1247.0
979.72 312.74 1230.9
979.88 311.78 1227.1
985.55 312.57 1230.2
985.07 311.41 1225.7
1019.07 321.12 1263.9
1024.80 321.89 1266.9
1000.87 313.37 1233.4
1051.15 328.07 1291.2
1120.86 348.71 1372.5
1149.16 356.39 1402.7
1125.37 474.61 1887.3
1109.44 465.87 1852.5
1116.05 466.63 1855.5
1105.48 460.22 1830.0
1083.15 449.00 1785.4
1094.72 451.86 1796.8
1096.64 450.74 1792.3
1058.09 433.06 1722.0
1034.17 421.49 1676.0
1037.88 421.23 1675.0
1040.03 420.34 1671.5
1028.17 413.83 1645.6
1011.01 405.24 1611.4
1014.06 404.79 1609.6
1022.32 406.41 1616.1
1012.77 400.97 1594.5
991.04 390.78 1553.9
986.04 387.23 1539.8
1000.02 391.14 1555.3
1004.51 391.32 1556.0
1005.28 390.05 1551.0
1019.90 394.14 1567.3
1030.83 396.79 1577.8
1009.59 387.07 1539.2
994.12 379.65 1509.6
1006.61 382.91 1522.6
1016.44 385.14 1531.5
1018.70 384.49 1528.9
1019.32 383.23 1523.9
1021.55 382.59 1521.3
1033.61 385.62 1533.4
1033.65 384.15 1527.6
1012.76 374.95 1491.0
1000.56 369.03 1467.4
1025.87 376.93 1498.8
1037.44 379.74 1510.0
1012.35 369.16 1468.0
1016.09 369.14 1467.9
1027.65 371.95 1479.0
1019.64 367.68 1462.0
1022.79 367.45 1461.1
1030.45 368.83 1466.6
1024.01 365.18 1452.1
1016.95 361.33 1436.8
1004.73 355.69 1414.4
978.77 345.24 1372.8
984.03 345.84 1375.2
1008.15 353.03 1403.8
994.55 347.02 1379.9
976.28 339.42 1349.7
954.44 330.65 1314.8
946.33 326.67 1299.0
960.72 330.46 1314.1
950.81 325.89 1295.9
949.55 324.32 1289.6
959.33 326.51 1298.3
949.87 322.16 1281.0
943.87 319.01 1268.5
946.61 318.82 1267.8
941.12 315.88 1256.1
951.50 318.26 1265.5
963.67 321.22 1277.3
942.75 313.17 1245.3
924.08 305.92 1216.5
933.85 308.11 1225.2
952.58 313.22 1245.5
955.26 313.04 1244.8
948.95 309.93 1232.4
945.00 307.60 1223.2
941.62 305.48 1214.7
968.32 313.09 1245.0
998.14 321.66 1279.1
989.96 317.97 1264.4
989.00 316.61 1259.0
972.85 310.42 1234.3
949.91 302.10 1201.3
974.43 308.89 1228.3
990.48 312.95 1244.4
971.69 306.02 1216.9
954.02 299.48 1190.9
980.53 306.81 1220.0
1046.56 326.42 1298.0
1056.67 328.52 1306.3
1034.64 320.64 1275.0
1046.59 323.31 1285.6
1066.65 328.46 1306.1
1131.56 347.34 1381.2
1107.36 462.20 1857.1
1086.34 451.46 1813.9
1086.82 449.72 1806.9
1087.78 448.18 1800.7
1077.04 441.86 1775.3
1074.35 438.88 1763.4
1063.95 432.79 1738.9
1058.06 428.58 1722.0
1062.89 428.73 1722.6
1049.16 421.42 1693.2
1035.84 414.34 1664.7
1035.89 412.64 1657.9
1029.67 408.46 1641.1
1021.29 403.47 1621.1
1018.07 400.55 1609.4
999.05 391.47 1572.9
968.85 378.09 1519.1
966.41 375.61 1509.1
983.52 380.72 1529.7
1001.24 386.02 1551.0
1014.77 389.67 1565.6
1020.34 390.25 1568.0
1022.17 389.40 1564.5
1008.95 382.84 1538.2
1001.02 378.34 1520.1
1004.89 378.31 1520.0
1006.05 377.27 1515.8
1014.80 379.07 1523.0
1024.11 381.06 1531.1
1021.98 378.81 1522.0
1028.58 379.78 1525.9
1040.68 382.78 1537.9
1032.45 378.30 1520.0
1027.47 375.05 1506.9
1059.51 385.27 1548.0
1067.28 386.64 1553.5
1039.47 375.15 1507.3
1032.13 371.10 1491.0
1031.43 369.47 1484.5
1012.78 361.44 1452.2
1005.80 357.62 1436.9
1034.26 366.38 1472.1
1050.98 370.93 1490.4
1023.03 359.75 1445.4
988.68 346.40 1391.8
988.28 345.00 1386.2
1018.66 354.31 1423.6
1047.44 363.01 1458.5
1036.23 357.83 1437.7
984.72 338.83 1361.4
931.22 319.28 1282.8
934.59 319.29 1282.9
961.69 327.38 1315.4
946.55 321.09 1290.1
940.05 317.76 1276.7
938.74 316.21 1270.5
919.30 308.58 1239.8
914.39 305.86 1228.9
917.65 305.88 1229.0
915.03 303.96 1221.3
927.12 306.91 1233.1
952.24 314.14 1262.2
946.08 311.04 1249.7
949.96 311.25 1250.6
981.79 320.59 1288.1
973.22 316.71 1272.5
946.67 307.03 1233.6
952.92 308.01 1237.6
960.37 309.38 1243.0
940.79 302.06 1213.6
950.02 304.01 1221.5
1017.84 324.63 1304.3
1051.45 334.23 1342.9
1013.64 321.15 1290.3
959.25 302.92 1217.1
937.50 295.08 1185.6
962.00 301.80 1212.6
1045.88 327.05 1314.0
1103.13 343.83 1381.5
1053.20 327.21 1314.7
1041.79 322.62 1296.2
1092.56 337.25 1355.0
1087.32 334.56 1344.2
1077.72 330.55 1328.1
1105.88 338.10 1358.4
1103.69 336.36 1351.5
1146.91 348.43 1399.9
1136.71 471.56 1914.6
1096.83 453.04 1839.4
1088.84 447.79 1818.1
1072.69 439.25 1783.4
1058.93 431.75 1753.0
1050.63 426.54 1731.8
1050.39 424.63 1724.0
1052.68 423.75 1720.5
1056.99 423.69 1720.2
1047.94 418.30 1698.3
1021.79 406.15 1649.0
1017.68 402.83 1635.6
1026.49 404.63 1642.9
1018.67 399.89 1623.6
1008.69 394.34 1601.1
997.58 388.40 1577.0
970.62 376.36 1528.1
976.64 377.16 1531.3
1010.13 388.51 1577.4
1007.78 386.05 1567.4
1008.05 384.60 1561.5
1009.88 383.76 1558.1
1004.22 380.08 1543.2
1017.79 383.69 1557.8
1016.37 381.64 1549.5
993.90 371.74 1509.3
982.63 366.08 1486.3
1002.15 371.89 1509.9
1029.90 380.70 1545.7
1027.81 378.46 1536.6
1013.68 371.81 1509.6
1015.87 371.18 1507.1
1023.55 372.56 1512.6
1030.69 373.72 1517.4
1041.15 376.08 1526.9
1039.47 374.05 1518.7
1011.67 362.68 1472.5
1011.53 361.26 1466.8
1033.12 367.59 1492.5
1034.66 366.76 1489.1
1018.24 359.60 1460.0
991.60 348.90 1416.6
999.18 350.27 1422.1
1034.46 361.30 1466.9
1026.29 357.13 1450.0
993.63 344.51 1398.8
995.52 343.91 1396.3
986.55 339.57 1378.7
972.37 333.48 1354.0
987.91 337.60 1370.7
965.00 328.59 1334.1
937.93 318.23 1292.1
968.46 327.42 1329.4
989.28 333.27 1353.1
968.98 325.28 1320.7
951.47 318.27 1292.2
938.53 312.84 1270.2
918.50 305.10 1238.7
913.00 302.21 1227.0
915.67 302.04 1226.3
911.28 299.56 1216.2
899.78 294.75 1196.7
901.20 294.21 1194.5
922.17 300.02 1218.1
951.52 308.51 1252.6
977.42 315.83 1282.3
961.67 309.69 1257.4
943.46 302.80 1229.4
956.88 306.07 1242.7
970.34 309.34 1256.0
955.59 303.61 1232.7
920.86 291.61 1184.0
941.53 297.16 1206.5
986.49 310.32 1259.9
963.08 301.96 1226.0
941.99 294.37 1195.2
956.73 298.00 1209.9
959.31 297.83 1209.2
1016.92 314.68 1277.7
1112.13 343.03 1392.7
1104.56 339.59 1378.8
1085.86 332.76 1351.1
1129.95 345.16 1401.4
1128.50 343.61 1395.1
1123.30 340.94 1384.3
1156.52 349.90 1420.7
1158.16 349.29 1418.2
1129.50 465.67 1910.8
1116.23 458.19 1880.1
1118.38 457.08 1875.5
1112.96 452.89 1858.4
1098.39 445.04 1826.1
1086.73 438.42 1799.0
1080.55 434.07 1781.1
1052.39 420.95 1727.3
1027.59 409.30 1679.5
1045.16 414.53 1701.0
1048.40 414.08 1699.1
1012.44 398.20 1633.9
997.95 390.87 1603.9
1015.01 395.89 1624.5
1016.00 394.64 1619.4
999.21 386.53 1586.1
981.26 378.02 1551.2
979.97 375.99 1542.8
1009.72 385.83 1583.2
1039.62 395.65 1623.5
1035.77 392.59 1610.9
1005.82 379.71 1558.1
979.94 368.46 1511.9
985.42 369.04 1514.3
1009.12 376.42 1544.6
1015.19 377.19 1547.7
999.18 369.77 1517.3
980.89 361.58 1483.7
993.36 364.75 1496.7
1023.81 374.47 1536.6
1022.80 372.65 1529.1
1004.27 364.48 1495.6
1000.96 361.89 1484.9
1009.69 363.64 1492.2
1018.45 365.40 1499.4
1017.28 363.59 1491.9
1003.36 357.26 1465.9
996.55 353.49 1450.5
1017.51 359.57 1475.5
1036.89 365.05 1497.9
1034.53 362.86 1488.9
1025.95 358.51 1471.1
1008.32 351.04 1440.5
998.46 346.33 1421.1
1015.10 350.81 1439.5
1024.44 352.74 1447.4
1009.94 346.48 1421.7
987.38 337.50 1384.9
955.55 325.44 1335.4
943.00 320.01 1313.1
960.20 324.67 1332.2
952.17 320.80 1316.4
941.77 316.16 1297.3
952.68 318.69 1307.7
953.77 317.92 1304.6
956.02 317.55 1303.0
959.42 317.55 1303.0
961.65 317.17 1301.5
955.69 314.11 1288.9
940.31 307.97 1263.7
933.06 304.54 1249.6
934.00 303.79 1246.6
927.85 300.75 1234.1
932.30 301.15 1235.7
952.75 306.71 1258.5
945.95 303.48 1245.3
935.54 299.12 1227.4
946.54 301.61 1237.6
955.18 303.33 1244.7
948.86 300.31 1232.3
940.70 296.73 1217.6
969.19 304.69 1250.3
983.91 308.29 1265.0
958.81 299.43 1228.7
953.56 296.80 1217.9
967.09 300.02 1231.1
986.73 305.11 1252.0
1000.35 308.30 1265.1
1002.41 307.93 1263.5
984.27 301.37 1236.6
991.79 302.69 1242.0
1039.25 316.15 1297.3
1085.65 329.20 1350.8
1125.44 340.17 1395.8
1117.17 336.58 1381.1
1134.86 340.82 1398.5
1167.08 486.72 2018.7
1116.06 455.23 1888.1
1109.23 450.47 1868.3
1113.36 450.18 1867.1
1110.44 447.06 1854.2
1084.24 434.63 1802.6
1061.38 423.64 1757.0
1060.19 421.36 1747.6
1037.05 410.41 1702.2
1016.29 400.49 1661.0
1034.85 406.08 1684.2
1053.49 411.66 1707.3
1033.00 401.96 1667.1
1012.36 392.29 1627.0
1023.23 394.86 1637.7
1024.77 393.82 1633.3
1010.09 386.58 1603.3
987.96 376.56 1561.8
981.97 372.75 1546.0
996.45 376.71 1562.4
1011.00 380.66 1578.8
1031.44 386.79 1604.2
1025.92 383.17 1589.2
987.29 367.27 1523.2
979.42 362.89 1505.1
1000.97 369.40 1532.1
1004.33 369.18 1531.2
1014.15 371.32 1540.1
1021.31 372.48 1544.8
1011.12 367.32 1523.5
1018.80 368.67 1529.1
1031.40 371.78 1542.0
1027.10 368.80 1529.6
1021.66 365.44 1515.6
1029.35 366.78 1521.2
1025.48 364.01 1509.7
1009.97 357.14 1481.2
1007.65 354.97 1472.2
1012.51 355.33 1473.7
1019.05 356.28 1477.7
1022.24 356.06 1476.8
1029.91 357.39 1482.3
1033.11 357.17 1481.4
1022.23 352.10 1460.3
1019.17 349.75 1450.6
1013.82 346.64 1437.7
1001.04 341.01 1414.3
1006.94 341.77 1417.5
1004.86 339.83 1409.4
971.92 327.50 1358.3
959.98 322.30 1336.7
967.47 323.65 1342.3
949.09 316.36 1312.1
938.10 311.58 1292.3
949.01 314.08 1302.7
945.46 311.80 1293.2
942.46 309.71 1284.5
951.06 311.44 1291.7
958.52 312.78 1297.2
973.02 316.40 1312.3
978.77 317.16 1315.4
975.72 315.07 1306.8
981.46 315.83 1309.9
961.84 308.45 1279.3
950.99 303.93 1260.5
960.23 305.83 1268.4
943.35 299.42 1241.8
940.66 297.56 1234.1
960.03 302.65 1255.2
963.91 302.85 1256.1
953.42 298.54 1238.2
935.65 292.00 1211.1
954.51 296.89 1231.3
1010.22 313.17 1298.9
1031.09 318.58 1321.3
994.50 306.25 1270.2
973.52 298.80 1239.3
979.19 299.56 1242.4
976.34 297.70 1234.7
1020.49 310.15 1286.3
1050.12 318.11 1319.4
1022.20 308.65 1280.1
1031.03 310.31 1287.0
1068.81 320.64 1329.9
1099.94 328.92 1364.2
1117.58 333.13 1381.6
1162.70 475.42 1993.2
1129.96 459.98 1928.5
1118.82 453.44 1901.1
1112.56 448.93 1882.2
1089.22 437.59 1834.6
1077.73 431.09 1807.4
1084.25 431.82 1810.4
1067.55 423.34 1774.9
1036.52 409.27 1715.9
1029.15 404.62 1696.4
1028.33 402.58 1687.8
1027.47 400.54 1679.3
1028.11 399.10 1673.2
1030.79 398.46 1670.5
1026.22 395.03 1656.2
1021.60 391.61 1641.9
1026.27 391.77 1642.5
1023.12 388.96 1630.7
1012.61 383.38 1607.3
994.67 375.04 1572.4
981.33 368.50 1545.0
989.50 370.06 1551.5
996.63 371.21 1556.3
1009.60 374.53 1570.2
1020.50 377.05 1580.8
996.77 366.81 1537.9
989.46 362.67 1520.5
1010.50 368.91 1546.7
1011.74 367.91 1542.5
1018.89 369.05 1547.3
1026.06 370.19 1552.0
1015.34 364.89 1529.8
1008.35 360.96 1513.4
1005.65 358.60 1503.5
1020.96 362.66 1520.5
1034.14 365.93 1534.2
1022.62 360.46 1511.3
999.44 350.95 1471.4
986.06 344.93 1446.2
986.44 343.76 1441.2
991.81 344.33 1443.6
999.96 345.85 1450.0
1000.31 344.68 1445.1
1005.69 345.24 1447.4
1006.58 344.26 1443.3
993.94 338.67 1419.9
1000.40 339.62 1423.9
1004.61 339.79 1424.6
990.67 333.85 1399.7
994.26 333.84 1399.6
1018.37 340.69 1428.4
1013.44 337.81 1416.3
980.98 325.81 1366.0
967.28 320.11 1342.1
954.07 314.60 1319.0
948.85 311.77 1307.1
967.88 316.89 1328.6
973.07 317.45 1330.9
954.44 310.28 1300.9
947.36 306.89 1286.6
947.22 305.77 1282.0
954.67 307.10 1287.5
979.73 314.06 1316.7
996.07 318.19 1334.0
983.61 313.12 1312.8
948.64 300.95 1261.7
915.86 289.55 1213.9
900.70 283.78 1189.8
916.37 287.73 1206.3
946.98 296.33 1242.4
960.99 299.70 1256.5
960.69 298.59 1251.9
945.38 292.85 1227.8
923.39 285.07 1195.2
918.74 282.69 1185.2
947.85 290.67 1218.7
1001.25 306.03 1283.0
1001.53 305.10 1279.2
957.49 290.72 1218.9
933.92 282.63 1185.0
947.44 285.78 1198.2
1008.65 303.25 1271.4
1051.73 315.18 1321.4
1040.98 310.94 1303.6
1048.00 312.03 1308.2
1085.83 322.25 1351.0
1105.90 327.15 1371.6
1112.42 328.02 1375.3
1157.21 476.50 2019.7
1151.93 470.07 1992.5
1116.31 451.48 1913.7
1092.31 439.83 1864.3
1088.50 436.36 1849.6
1093.60 436.48 1850.1
1080.69 429.44 1820.2
1065.14 421.43 1786.3
1068.10 420.77 1783.5
1069.02 419.31 1777.3
1055.72 412.32 1747.7
1025.02 398.62 1689.6
1003.27 388.50 1646.7
1017.16 392.21 1662.4
1032.66 396.51 1680.6
1027.11 392.72 1664.6
1015.30 386.58 1638.6
1000.80 379.47 1608.4
996.05 376.10 1594.2
996.98 374.90 1589.0
990.56 370.95 1572.3
994.57 370.93 1572.2
1003.31 372.66 1579.5
996.24 368.53 1562.1
989.11 364.41 1544.6
990.40 363.41 1540.4
991.14 362.22 1535.3
996.65 362.78 1537.7
1017.16 368.77 1563.1
1029.17 371.64 1575.3
1020.77 367.15 1556.2
1013.92 363.25 1539.7
1005.92 358.98 1521.6
996.77 354.32 1501.8
991.35 351.02 1487.8
986.42 347.92 1474.7
998.95 350.98 1487.7
1006.04 352.11 1492.5
987.83 344.42 1459.9
986.61 342.68 1452.5
998.07 345.34 1463.8
1006.80 347.04 1471.0
1022.78 351.22 1488.7
1021.54 349.47 1481.3
1013.01 345.26 1463.4
997.69 338.77 1435.9
975.53 330.01 1398.8
978.57 329.81 1398.0
1001.92 336.44 1426.0
1013.49 339.07 1437.2
1006.94 335.65 1422.7
982.14 326.19 1382.6
976.58 323.16 1369.8
981.83 323.72 1372.1
960.74 315.62 1337.8
963.06 315.25 1336.2
967.68 315.62 1337.8
935.95 304.18 1289.3
927.77 300.45 1273.5
965.33 311.51 1320.4
980.96 315.43 1337.0
954.71 305.91 1296.6
935.91 298.83 1266.6
950.94 302.57 1282.5
983.04 311.70 1321.2
989.98 312.81 1325.9
969.84 305.38 1294.4
933.05 292.79 1241.0
897.86 280.77 1190.1
914.09 284.87 1207.5
959.52 298.01 1263.1
971.16 300.60 1274.1
966.12 298.02 1263.2
972.42 298.95 1267.1
963.13 295.10 1250.8
944.77 288.50 1222.9
943.78 287.24 1217.5
952.42 288.90 1224.5
983.47 297.33 1260.3
1009.78 304.27 1289.7
997.32 299.52 1269.6
967.13 289.50 1227.1
968.52 288.97 1224.8
1018.18 302.79 1283.4
1048.43 310.77 1317.3
1043.81 308.40 1307.2
1056.38 311.10 1318.6
1081.91 317.59 1346.2
1088.39 318.47 1349.9
1116.54 325.66 1380.3
1166.11 472.75 2026.1
1147.53 463.13 1984.8
1122.88 451.16 1933.5
1114.33 445.73 1910.3
1103.20 439.33 1882.8
1077.04 427.02 1830.1
1062.64 419.46 1797.7
1076.65 423.14 1813.4
1085.69 424.84 1820.7
1061.00 413.38 1771.6
1036.12 401.94 1722.6
1038.43 401.11 1719.0
1022.40 393.23 1685.3
1009.31 386.54 1656.6
1030.39 392.95 1684.1
1034.12 392.71 1683.0
1019.30 385.45 1651.9
1020.90 384.44 1647.6
1018.84 382.06 1637.4
1001.15 373.87 1602.3
989.58 368.02 1577.2
991.50 367.22 1573.8
1003.90 370.29 1587.0
1002.67 368.33 1578.6
986.10 360.77 1546.2
974.71 355.16 1522.1
972.23 352.83 1512.1
986.22 356.47 1527.7
1004.54 361.63 1549.9
1021.86 366.40 1570.3
1030.13 367.90 1576.7
1011.50 359.82 1542.1
994.36 352.33 1510.0
1006.33 355.18 1522.2
1017.26 357.63 1532.7
1016.25 355.88 1525.2
1016.84 354.71 1520.2
1010.30 351.07 1504.6
999.86 346.10 1483.3
988.78 340.96 1461.3
995.28 341.89 1465.2
1013.96 346.98 1487.1
1030.50 351.31 1505.6
1029.86 349.76 1499.0
1011.91 342.38 1467.3
1015.09 342.16 1466.4
1012.09 339.88 1456.6
1000.63 334.78 1434.8
1015.56 338.52 1450.8
1010.79 335.69 1438.7
994.08 328.92 1409.7
1008.47 332.46 1424.8
1006.42 330.58 1416.8
975.82 319.36 1368.7
956.49 311.90 1336.7
931.88 302.78 1297.6
928.96 300.74 1288.9
961.14 310.05 1328.8
958.82 308.19 1320.8
919.44 294.48 1262.1
925.10 295.24 1265.3
955.17 303.77 1301.9
944.00 299.16 1282.1
930.42 293.82 1259.2
950.13 298.99 1281.4
978.72 306.91 1315.3
983.89 307.47 1317.7
976.10 303.98 1302.8
952.31 295.54 1266.6
908.26 280.90 1203.9
913.84 281.66 1207.1
965.82 296.67 1271.4
983.44 301.05 1290.2
955.13 291.40 1248.8
938.06 285.22 1222.4
977.88 296.33 1270.0
1008.84 304.68 1305.8
987.50 297.24 1273.9
976.92 293.08 1256.0
999.56 298.87 1280.9
1019.25 303.75 1301.8
1038.39 308.43 1321.9
1044.81 309.32 1325.7
1021.95 301.56 1292.4
1039.95 305.87 1310.9
1088.63 319.14 1367.8
1101.89 321.98 1379.9
1104.12 321.59 1378.2
1119.28 324.95 1392.7
1116.57 323.12 1384.8
1133.64 327.01 1401.5
1154.22 466.94 2023.6
1129.95 455.05 1972.1
1131.40 453.58 1965.8
1119.07 446.63 1935.6
1104.65 438.90 1902.1
1104.43 436.86 1893.3
1097.72 432.29 1873.5
1075.51 421.68 1827.5
1043.13 407.19 1764.7
1039.55 404.02 1751.0
1058.02 409.41 1774.3
1042.30 401.58 1740.4
1025.94 393.57 1705.7
1036.33 395.85 1715.6
1040.14 395.61 1714.5
1043.43 395.17 1712.6
1037.48 391.25 1695.6
1017.61 382.14 1656.1
1006.33 376.32 1630.9
1011.50 376.67 1632.4
1017.19 377.21 1634.8
1006.76 371.79 1611.3
1000.94 368.11 1595.4
1009.18 369.62 1601.9
1005.89 366.90 1590.1
988.35 359.03 1556.0
981.76 355.19 1539.3
981.46 353.64 1532.6
976.88 350.57 1519.3
988.22 353.22 1530.8
1003.34 357.19 1548.0
1017.99 360.96 1564.4
1020.88 360.55 1562.6
997.37 350.85 1520.5
992.60 347.80 1507.3
1016.48 354.77 1537.5
1032.87 359.08 1556.2
1036.80 359.05 1556.1
1042.36 359.58 1558.4
1043.01 358.41 1553.3
1031.00 352.92 1529.5
1018.90 347.44 1505.8
1019.41 346.29 1500.8
1031.52 349.07 1512.8
1033.12 348.29 1509.4
1016.36 341.34 1479.3
998.36 334.04 1447.7
1001.51 333.84 1446.8
1016.97 337.73 1463.7
1025.75 339.38 1470.8
1039.63 342.69 1485.2
1033.78 339.51 1471.4
997.29 326.32 1414.2
991.83 323.34 1401.3
1006.81 327.03 1417.3
993.31 321.47 1393.2
985.45 317.77 1377.2
973.52 312.79 1355.6
940.81 301.20 1305.3
941.35 300.29 1301.4
960.34 305.25 1322.9
941.79 298.29 1292.7
924.29 291.71 1264.2
929.95 292.46 1267.5
939.11 294.30 1275.5
943.04 294.49 1276.3
938.19 291.95 1265.3
942.10 292.15 1266.1
960.72 296.89 1286.7
967.62 297.99 1291.4
966.25 296.54 1285.2
947.09 289.66 1255.4
918.93 280.08 1213.8
934.05 283.72 1229.6
968.30 293.13 1270.4
959.67 289.53 1254.8
934.21 280.89 1217.4
963.23 288.65 1251.0
998.39 298.18 1292.3
984.85 293.15 1270.5
967.01 286.88 1243.3
981.76 290.29 1258.1
1012.34 298.34 1293.0
1044.84 306.90 1330.1
1070.16 313.30 1357.8
1069.93 312.21 1353.1
1067.84 310.58 1346.0
1091.47 316.42 1371.3
1120.09 323.66 1402.7
1139.58 328.23 1422.5
1138.17 326.77 1416.2
1120.67 320.71 1389.9
1130.33 322.43 1397.4
1145.00 458.00 2007.5
1111.91 442.75 1940.6
1103.99 437.62 1918.1
1112.68 439.08 1924.6
1116.95 438.80 1923.3
1100.95 430.59 1887.3
1078.84 420.08 1841.3
1062.53 411.91 1805.4
1035.59 399.70 1751.9
1025.97 394.26 1728.1
1038.87 397.48 1742.2
1051.31 400.50 1755.4
1062.79 403.13 1767.0
1055.03 398.47 1746.5
1041.59 391.71 1716.9
1010.67 378.46 1658.8
972.34 362.57 1589.2
977.95 363.12 1591.6
991.29 366.53 1606.5
998.48 367.64 1611.4
1005.16 368.56 1615.4
1001.46 365.68 1602.8
1002.92 364.70 1598.5
1002.79 363.15 1591.7
990.03 357.06 1565.0
979.80 351.93 1542.5
980.58 350.78 1537.5
990.86 353.02 1547.3
997.99 354.13 1552.2
999.81 353.35 1548.8
1005.35 353.88 1551.1
1017.33 356.67 1563.3
1019.14 355.89 1559.9
1010.16 351.36 1540.0
1019.47 353.20 1548.1
1020.14 352.05 1543.1
1013.18 348.28 1526.6
1020.33 349.37 1531.3
1030.21 351.39 1540.2
1030.27 350.05 1534.3
1017.67 344.44 1509.7
1013.80 341.82 1498.2
1023.12 343.64 1506.2
1031.92 345.28 1513.4
1030.20 343.40 1505.2
1025.10 340.41 1492.1
1018.28 336.88 1476.6
1011.96 333.53 1461.9
1017.37 334.06 1464.2
1020.53 333.85 1463.3
1027.63 334.93 1468.0
1025.13 332.88 1459.1
993.14 321.31 1408.3
978.58 315.44 1382.6
983.28 315.80 1384.2
977.71 312.87 1371.3
976.10 311.22 1364.1
985.36 313.04 1372.1
975.09 308.66 1352.9
957.26 301.93 1323.4
956.08 300.48 1317.1
936.93 293.42 1286.1
919.41 286.91 1257.5
929.13 288.92 1266.4
941.21 291.64 1278.3
967.36 298.69 1309.2
983.65 302.66 1326.6
963.00 295.28 1294.2
957.55 292.58 1282.4
949.10 289.00 1266.7
932.91 283.09 1240.8
960.48 290.45 1273.1
980.43 295.47 1295.1
959.98 288.32 1263.8
957.92 286.72 1256.7
980.34 292.44 1281.8
986.07 293.15 1284.9
974.39 288.71 1265.4
968.66 286.05 1253.8
988.22 290.85 1274.8
1006.63 295.28 1294.2
997.86 291.73 1278.7
1002.99 292.26 1281.0
1033.66 300.21 1315.8
1056.52 305.84 1340.5
1059.93 305.81 1340.4
1062.10 305.44 1338.8
1070.40 306.82 1344.8
1080.56 308.73 1353.2
1114.75 317.47 1391.5
1132.40 321.46 1409.0
1158.15 327.71 1436.4
1171.42 461.15 2044.5
1129.92 442.81 1963.2
1109.22 432.75 1918.6
1103.62 428.64 1900.4
1079.16 417.27 1850.0
1063.42 409.37 1814.9
1053.02 403.58 1789.3
1051.51 401.23 1778.9
1064.99 404.60 1793.8
1062.93 402.07 1782.6
1062.34 400.10 1773.9
1062.73 398.52 1766.9
1045.83 390.50 1731.3
1041.51 387.23 1716.8
1020.79 377.91 1675.5
968.64 357.09 1583.1
960.36 352.54 1563.0
979.32 357.99 1587.1
992.68 361.35 1602.1
999.87 362.45 1606.9
997.18 359.98 1596.0
996.02 358.07 1587.5
992.72 355.42 1575.8
989.91 352.96 1564.8
990.21 351.62 1558.9
988.90 349.73 1550.5
997.62 351.39 1557.9
1013.80 355.65 1576.8
1024.72 358.04 1587.4
1018.05 354.28 1570.7
1016.66 352.39 1562.3
1026.53 354.40 1571.2
1026.19 352.88 1564.5
1021.50 349.88 1551.2
1008.08 343.93 1524.8
995.10 338.18 1499.3
998.38 337.97 1498.4
1015.32 342.37 1517.9
1021.91 343.27 1521.9
998.29 334.04 1481.0
982.24 327.41 1451.6
995.90 330.70 1466.2
1009.06 333.80 1479.9
1014.49 334.32 1482.2
1017.15 333.93 1480.5
1005.28 328.79 1457.7
992.77 323.49 1434.2
1005.98 326.57 1447.8
1017.54 329.09 1459.0
1002.08 322.89 1431.5
976.34 313.44 1389.6
978.22 312.89 1387.2
997.13 317.77 1408.8
991.06 314.68 1395.1
975.23 308.53 1367.8
966.16 304.55 1350.2
966.79 303.65 1346.2
974.88 305.09 1352.6
975.49 304.19 1348.6
968.58 300.95 1334.3
943.07 291.98 1294.5
925.56 285.54 1266.0
935.29 287.53 1274.8
956.73 293.08 1299.4
992.86 303.08 1343.7
1009.21 307.00 1361.1
988.62 299.68 1328.7
951.42 287.41 1274.2
912.27 274.63 1217.6
914.32 274.30 1216.1
960.23 287.08 1272.8
987.91 294.34 1305.0
975.21 289.57 1283.8
971.39 287.45 1274.4
990.86 292.22 1295.6
986.42 289.93 1285.4
965.73 282.89 1254.2
985.86 287.82 1276.0
1031.39 300.10 1330.5
1039.02 301.32 1335.9
1023.05 295.70 1311.0
1017.30 293.06 1299.3
1034.03 296.90 1316.3
1055.68 302.12 1339.4
1057.85 301.75 1337.8
1069.82 304.16 1348.5
1091.01 309.18 1370.7
1095.68 309.49 1372.1
1118.83 315.01 1396.6
1147.60 322.07 1427.9
1141.86 450.46 2020.3
1142.48 448.64 2012.2
1166.89 456.15 2045.8
1165.08 453.38 2033.4
1126.48 436.38 1957.2
1083.15 417.72 1873.5
1058.72 406.47 1823.0
1051.40 401.87 1802.4
1052.45 400.49 1796.2
1050.97 398.16 1785.8
1057.44 398.86 1788.9
1067.43 400.87 1797.9
1061.86 397.04 1780.8
1056.73 393.41 1764.5
1052.54 390.16 1749.9
1033.56 381.49 1711.0
1028.69 378.07 1695.6
1039.61 380.45 1706.3
1017.75 370.87 1663.4
999.32 362.62 1626.4
1010.15 365.01 1637.1
1000.84 360.14 1615.2
986.78 353.59 1585.9
991.34 353.75 1586.6
997.46 354.47 1589.8
991.55 350.92 1573.9
986.10 347.56 1558.8
997.98 350.31 1571.2
1008.84 352.69 1581.8
1000.13 348.22 1561.8
998.79 346.35 1553.4
1021.93 352.96 1583.0
1026.47 353.10 1583.7
1010.09 346.09 1552.2
1005.43 343.12 1538.9
1017.97 346.03 1552.0
1025.14 347.09 1556.7
1020.40 344.14 1543.5
1015.61 341.18 1530.2
998.77 334.22 1499.0
996.03 332.01 1489.1
1018.47 338.18 1516.7
1010.22 334.15 1498.7
990.33 326.32 1463.5
999.05 327.93 1470.8
1014.99 331.90 1488.6
1022.66 333.14 1494.1
1017.54 330.22 1481.0
998.96 322.97 1448.5
985.87 317.54 1424.2
999.62 320.77 1438.7
1009.49 322.74 1447.5
992.87 316.25 1418.4
978.40 310.49 1392.6
989.93 312.99 1403.8
998.64 314.59 1411.0
982.31 308.32 1382.8
971.02 303.66 1362.0
967.67 301.52 1352.3
967.73 300.45 1347.5
973.52 301.16 1350.7
983.35 303.11 1359.5
985.12 302.57 1357.1
967.76 296.18 1328.4
957.26 291.93 1309.3
943.79 286.80 1286.3
942.49 285.40 1280.0
965.14 291.24 1306.2
967.95 291.06 1305.4
967.23 289.83 1299.9
950.59 283.86 1273.1
922.04 274.38 1230.6
935.36 277.38 1244.1
951.09 281.08 1260.7
948.45 279.34 1252.8
969.01 284.42 1275.6
998.60 292.11 1310.1
998.99 291.23 1306.2
978.98 284.43 1275.7
970.28 280.96 1260.1
1000.66 288.78 1295.2
1025.72 295.02 1323.2
1016.41 291.37 1306.8
1012.50 289.29 1297.5
1020.09 290.49 1302.9
1016.13 288.41 1293.5
1012.75 286.50 1285.0
1038.67 292.87 1313.5
1078.76 303.18 1359.8
1109.79 310.89 1394.3
1125.57 314.28 1409.6
1132.76 315.27 1414.0
1143.06 317.11 1422.2
1167.60 322.87 1448.1
1136.54 443.15 2010.9
1144.90 444.37 2016.5
1159.59 448.02 2033.1
1149.94 442.28 2007.0
1139.68 436.37 1980.1
1120.96 427.27 1938.9
1088.26 412.96 1873.9
1075.60 406.34 1843.9
1065.30 400.66 1818.1
1054.39 394.82 1791.6
1048.38 390.84 1773.6
1045.80 388.18 1761.5
1054.25 389.61 1768.0
1062.21 390.86 1773.6
1052.46 385.60 1749.8
1028.39 375.16 1702.4
1017.90 369.75 1677.9
1022.64 369.89 1678.5
1026.88 369.85 1678.3
1033.17 370.55 1681.5
1038.95 371.05 1683.8
1025.58 364.75 1655.1
1014.17 359.19 1629.9
1021.94 360.44 1635.6
1018.24 357.64 1622.9
1002.95 350.83 1592.0
1003.84 349.70 1586.9
1022.62 354.79 1610.0
1023.52 353.65 1604.8
1005.30 345.95 1569.9
988.01 338.63 1536.7
996.20 340.07 1543.2
1018.85 346.41 1571.9
1020.14 345.47 1567.7
1000.98 337.63 1532.1
998.94 335.61 1523.0
1014.18 339.39 1540.1
1017.54 339.18 1539.1
1022.53 339.51 1540.6
1014.43 335.51 1522.5
1007.35 331.88 1506.0
1024.89 336.35 1526.3
1019.95 333.45 1513.1
1002.84 326.60 1482.0
1007.72 326.93 1483.6
1019.81 329.60 1495.6
1028.60 331.18 1502.8
1025.16 328.83 1492.2
1008.83 322.37 1462.9
1000.80 318.61 1445.8
1013.47 321.44 1458.6
1022.81 323.19 1466.6
1002.27 315.53 1431.8
982.73 308.24 1398.7
986.89 308.40 1399.5
987.07 307.33 1394.6
968.43 300.42 1363.3
954.81 295.12 1339.2
972.61 299.53 1359.2
993.92 304.99 1384.0
986.54 301.64 1368.8
981.40 298.99 1356.8
994.73 301.97 1370.3
988.98 299.16 1357.5
969.23 292.14 1325.7
945.88 284.10 1289.2
929.98 278.34 1263.1
937.99 279.75 1269.5
951.29 282.73 1283.0
961.11 284.65 1291.7
963.89 284.48 1290.9
954.85 280.84 1274.4
943.98 276.68 1255.5
935.41 273.23 1239.9
936.90 272.73 1237.6
961.01 278.79 1265.1
985.81 285.01 1293.3
983.78 283.46 1286.3
989.51 284.15 1289.4
1007.28 288.28 1308.2
997.39 284.49 1291.0
980.81 278.83 1265.3
995.60 282.09 1280.1
1018.91 287.73 1305.7
1026.52 288.92 1311.1
1023.79 287.20 1303.3
1028.35 287.53 1304.8
1062.86 296.21 1344.1
1084.64 301.29 1367.2
1092.38 302.45 1372.5
1106.27 305.30 1385.4
1110.97 305.61 1386.8
1147.15 314.54 1427.3
1155.17 447.16 2053.3
1148.62 442.59 2032.3
1141.97 438.02 2011.3
1143.52 436.62 2004.9
1119.15 425.38 1953.3
1096.53 414.90 1905.2
1098.80 413.90 1900.5
1085.75 407.16 1869.6
1082.48 404.12 1855.7
1080.64 401.65 1844.3
1052.83 389.59 1788.9
1030.30 379.58 1743.0
1050.24 385.24 1769.0
1078.84 394.01 1809.2
1074.25 390.64 1793.7
1053.39 381.40 1751.3
1033.89 372.73 1711.5
1027.48 368.84 1693.7
1022.03 365.32 1677.5
1016.00 361.63 1660.5
1022.77 362.50 1664.5
1030.07 363.55 1669.4
1031.16 362.42 1664.2
1033.28 361.65 1660.6
1035.37 360.88 1657.1
1024.91 355.75 1633.6
1014.88 350.82 1610.9
1022.11 351.87 1615.7
1031.46 353.64 1623.9
1023.92 349.63 1605.4
1017.89 346.17 1589.5
1012.34 342.89 1574.5
999.79 337.28 1548.7
1003.72 337.25 1548.6
1019.46 341.17 1566.6
1014.28 338.09 1552.5
989.61 328.57 1508.7
982.64 324.97 1492.2
992.43 326.92 1501.2
1004.42 329.57 1513.4
1008.27 329.55 1513.2
1013.21 329.88 1514.8
1023.63 331.99 1524.4
1011.54 326.81 1500.6
999.36 321.63 1476.9
1009.76 323.74 1486.6
1020.19 325.84 1496.2
1028.99 327.41 1503.4
1028.33 325.96 1496.8
1014.24 320.29 1470.7
1003.41 315.68 1449.5
1014.41 317.95 1460.0
1021.50 318.98 1464.7
998.69 310.70 1426.7
976.30 302.62 1389.6
978.17 302.08 1387.1
991.42 305.05 1400.7
984.75 301.89 1386.2
956.30 292.11 1341.3
959.21 291.93 1340.5
983.94 298.38 1370.1
981.14 296.46 1361.3
974.26 293.32 1346.9
985.84 295.75 1358.0
979.48 292.80 1344.5
959.12 285.69 1311.9
951.46 282.41 1296.8
951.34 281.38 1292.1
947.69 279.32 1282.6
949.28 278.81 1280.3
969.10 283.64 1302.4
982.50 286.56 1315.9
968.18 281.41 1292.2
952.60 275.93 1267.0
949.98 274.22 1259.2
956.26 275.09 1263.2
965.52 276.80 1271.0
974.81 278.52 1278.9
974.54 277.50 1274.2
981.46 278.52 1278.9
1006.42 284.65 1307.0
1004.37 283.11 1300.0
987.19 277.34 1273.5
1000.78 280.22 1286.7
1040.48 290.37 1333.3
1066.36 296.60 1362.0
1072.85 297.42 1365.7
1089.10 300.94 1381.9
1110.91 305.96 1404.9
1118.70 307.10 1410.1
1116.69 305.54 1403.0
1118.95 305.17 1401.3
1120.59 304.63 1398.8
1153.09 312.45 1434.7
1135.22 436.22 2027.2
1121.91 429.12 1994.2
1120.07 426.45 1981.8
1117.21 423.42 1967.7
1103.08 416.16 1934.0
1068.29 401.21 1864.5
1056.76 395.10 1836.1
1067.26 397.23 1846.0
1039.29 385.09 1789.6
1022.48 377.18 1752.8
1046.78 384.44 1786.5
1042.78 381.28 1771.9
1036.22 377.22 1753.0
1070.24 387.90 1802.6
1078.26 389.11 1808.3
1053.97 378.70 1759.9
1043.17 373.20 1734.3
1033.28 368.08 1710.5
1023.81 363.15 1687.6
1015.78 358.77 1667.2
1018.45 358.19 1664.5
1034.50 362.29 1683.6
1022.21 356.48 1656.6
1005.14 349.07 1622.2
1000.42 345.98 1607.8
994.08 342.36 1591.0
1004.92 344.66 1601.7
1016.32 347.14 1613.2
1012.51 344.42 1600.6
1011.29 342.60 1592.1
1004.21 338.82 1574.5
998.65 335.58 1559.5
1014.85 339.65 1578.4
1022.05 340.68 1583.2
994.47 330.17 1534.3
980.67 324.28 1507.0
995.29 327.81 1523.4
989.99 324.78 1509.3
997.63 326.00 1515.0
1021.03 332.33 1544.4
1012.96 328.42 1526.2
997.73 322.22 1497.4
1000.45 321.85 1495.7
1009.75 323.59 1503.8
1003.11 320.22 1488.1
998.07 317.40 1475.0
1005.16 318.43 1479.8
1013.36 319.81 1486.2
1008.79 317.16 1473.9
993.59 311.20 1446.2
997.84 311.36 1446.9
1005.46 312.56 1452.5
1005.23 311.32 1446.8
1002.72 309.39 1437.8
987.75 303.64 1411.1
973.82 298.26 1386.0
968.31 295.48 1373.1
973.00 295.82 1374.7
979.40 296.68 1378.7
964.08 290.98 1352.2
958.98 288.39 1340.2
973.95 291.83 1356.2
975.73 291.31 1353.8
974.60 289.94 1347.4
974.03 288.73 1341.8
956.04 282.39 1312.3
950.73 279.83 1300.4
957.62 280.86 1305.2
955.76 279.33 1298.1
949.78 276.60 1285.4
955.49 277.29 1288.6
978.85 283.08 1315.5
1002.89 289.03 1343.2
1001.61 287.66 1336.8
975.44 279.18 1297.4
962.18 274.44 1275.4
966.11 274.61 1276.2
971.82 275.29 1279.3
987.10 278.67 1295.0
992.25 279.17 1297.4
979.40 274.63 1276.2
982.11 274.46 1275.5
999.28 278.32 1293.4
1003.23 278.49 1294.2
1012.62 280.16 1301.9
1044.47 288.01 1338.4
1051.53 289.00 1343.0
1037.27 284.14 1320.4
1072.38 292.79 1360.6
1117.40 304.08 1413.1
1127.66 305.87 1421.4
1128.11 304.99 1417.4
1124.24 302.96 1407.9
1120.34 300.93 1398.5
1147.30 307.18 1427.5
1137.38 433.79 2040.5
1120.79 425.49 2001.4
1129.12 426.67 2007.0
1144.72 430.58 2025.4
1119.60 419.21 1971.9
1085.99 404.78 1904.0
1065.30 395.27 1859.3
1065.04 393.39 1850.5
1070.64 393.69 1851.9
1038.22 380.06 1787.8
1007.03 367.01 1726.3
1017.36 369.13 1736.3
1047.18 378.28 1779.4
1073.17 385.96 1815.5
1072.67 384.10 1806.7
1048.46 373.80 1758.3
1030.63 365.85 1720.9
1024.81 362.22 1703.8
1027.07 361.46 1700.2
1028.29 360.34 1695.0
1017.20 354.94 1669.6
1017.31 353.47 1662.7
1030.27 356.46 1676.7
1015.37 349.83 1645.6
1003.46 344.28 1619.5
1003.93 343.01 1613.5
994.46 338.36 1591.6
1002.69 339.75 1598.1
1015.66 342.73 1612.2
1013.42 340.58 1602.0
1001.65 335.24 1576.9
984.48 328.16 1543.6
1002.75 332.90 1565.9
1040.79 344.13 1618.7
1030.98 339.52 1597.0
985.21 323.15 1520.0
973.52 318.04 1496.0
990.28 322.23 1515.7
990.36 320.99 1509.9
1002.88 323.76 1522.9
1039.33 334.22 1572.1
1044.38 334.53 1573.6
1013.94 323.51 1521.7
999.73 317.74 1494.6
1009.57 319.63 1503.5
1004.59 316.83 1490.3
991.82 311.61 1465.7
991.69 310.38 1460.0
992.65 309.49 1455.8
979.68 304.29 1431.3
980.56 303.42 1427.2
1000.44 308.41 1450.7
1003.58 308.22 1449.8
1000.54 306.13 1440.0
1007.03 306.98 1444.0
1003.37 304.73 1433.4
984.37 297.85 1401.1
972.07 293.05 1378.5
972.78 292.19 1374.4
974.61 291.67 1372.0
981.01 292.52 1376.0
998.32 296.60 1395.2
1012.81 299.82 1410.3
1012.95 298.78 1405.4
996.32 292.82 1377.4
980.75 287.22 1351.0
972.63 283.83 1335.1
975.50 283.66 1334.3
975.45 282.64 1329.5
965.45 278.76 1311.2
964.17 277.41 1304.9
975.19 279.60 1315.2
990.37 282.96 1331.0
1006.78 286.65 1348.4
1014.96 287.98 1354.6
998.29 282.27 1327.8
986.27 277.92 1307.3
991.43 278.42 1309.6
981.69 274.74 1292.3
980.26 273.41 1286.1
988.39 274.74 1292.3
976.13 270.41 1272.0
987.26 272.58 1282.2
1011.08 278.22 1308.7
1014.44 278.21 1308.6
1023.86 279.85 1316.4
1026.02 279.51 1314.8
1000.80 271.74 1278.2
1004.11 271.74 1278.2
1056.25 284.91 1340.2
1100.03 295.75 1391.1
1110.87 297.68 1400.3
1112.51 297.15 1397.8
1111.07 295.81 1391.4
1103.44 292.82 1377.4
1126.66 298.02 1401.8
1125.85 428.14 2038.8
1130.41 427.87 2037.5
1134.01 427.23 2034.4
1128.94 423.35 2016.0
1145.97 427.76 2036.9
1142.76 424.60 2021.9
1102.56 407.80 1941.9
1070.34 394.08 1876.6
1048.12 384.15 1829.3
1055.16 384.99 1833.3
1067.13 387.61 1845.8
1065.81 385.40 1835.3
1061.96 382.31 1820.5
1047.61 375.47 1788.0
1055.58 376.66 1793.6
1071.09 380.52 1812.0
1060.53 375.12 1786.3
1044.33 367.79 1751.4
1034.06 362.59 1726.6
1013.04 353.69 1684.2
1000.50 347.81 1656.3
1012.36 350.43 1668.7
1009.40 347.92 1656.8
1014.62 348.24 1658.3
1030.15 352.08 1676.6
1018.35 346.58 1650.4
1008.51 341.80 1627.6
1023.56 345.45 1645.0
1028.75 345.76 1646.5
1013.54 339.24 1615.4
1003.45 334.48 1592.8
999.60 331.83 1580.2
985.13 325.70 1550.9
981.14 323.06 1538.4
1013.75 332.44 1583.1
1040.12 339.72 1617.7
1018.55 331.34 1577.8
993.62 321.93 1533.0
1000.74 322.95 1537.9
1014.35 326.04 1552.6
1010.72 323.59 1540.9
991.33 316.13 1505.4
997.89 316.98 1509.4
1020.80 322.99 1538.0
1006.66 317.27 1510.8
990.24 310.89 1480.4
997.31 311.90 1485.2
996.69 310.51 1478.6
989.42 307.06 1462.2
982.64 303.79 1446.6
976.36 300.70 1431.9
995.62 305.47 1454.6
1029.46 314.67 1498.4
1019.26 310.38 1478.0
990.48 300.48 1430.9
981.21 296.56 1412.2
983.15 296.04 1409.7
998.64 299.59 1426.6
1000.58 299.07 1424.1
996.27 296.68 1412.8
1006.15 298.53 1421.6
1002.93 296.49 1411.8
1004.25 295.80 1408.6
1012.43 297.13 1414.9
1017.77 297.61 1417.2
1020.80 297.43 1416.3
1007.07 292.37 1392.3
993.25 287.33 1368.3
986.32 284.31 1353.9
999.69 287.15 1367.4
1008.45 288.64 1374.5
993.26 283.29 1349.0
986.18 280.28 1334.7
990.21 280.44 1335.5
999.54 282.10 1343.3
999.45 281.10 1338.6
992.25 278.10 1324.3
998.03 278.76 1327.4
1007.98 280.57 1336.1
1010.22 280.23 1334.4
996.94 275.60 1312.4
987.17 271.97 1295.1
986.32 270.82 1289.6
982.46 268.85 1280.2
1000.83 272.95 1299.8
1018.65 276.88 1318.5
1018.41 275.89 1313.8
1022.99 276.21 1315.3
1020.89 274.73 1308.2
1011.47 271.29 1291.9
1031.87 275.85 1313.5
1059.65 282.34 1344.5
1073.46 285.08 1357.5
1078.11 285.38 1359.0
1074.16 283.41 1349.6
1101.58 289.70 1379.5
1131.56 296.62 1412.5
1136.30 296.90 1413.8
1183.16 308.15 1467.4
1120.60 420.88 2029.3
1095.07 409.37 1973.7
1104.76 411.07 1982.0
1107.27 410.10 1977.3
1104.93 407.35 1964.0
1084.62 398.03 1919.1
1087.45 397.24 1915.3
1091.73 396.99 1914.1
1056.85 382.57 1844.5
1050.66 378.62 1825.5
1056.22 378.91 1826.9
1049.42 374.79 1807.0
1056.43 375.62 1811.0
1051.50 372.21 1794.6
1060.99 373.92 1802.8
1080.02 378.95 1827.1
1080.55 377.48 1820.0
1073.98 373.56 1801.1
1062.79 368.07 1774.6
1040.83 358.91 1730.4
1007.50 345.92 1667.8
999.47 341.70 1647.5
1022.09 347.94 1677.6
1049.44 355.74 1715.2
1056.83 356.74 1720.0
1037.35 348.69 1681.2
1008.38 337.53 1627.4
1004.69 334.90 1614.7
1012.44 336.08 1620.4
1000.31 330.68 1594.4
1014.85 334.11 1610.9
1035.25 339.43 1636.5
1018.77 332.66 1603.9
1012.76 329.35 1588.0
1017.84 329.67 1589.5
1018.66 328.60 1584.3
1017.86 327.02 1576.7
1012.20 323.90 1561.7
1011.32 322.33 1554.1
1016.34 322.65 1555.6
1017.03 321.59 1550.5
1002.53 315.76 1522.4
980.32 307.55 1482.8
975.39 304.81 1469.6
988.45 307.69 1483.5
999.91 310.05 1494.9
1002.62 309.69 1493.1
999.26 307.46 1482.4
988.12 302.87 1460.3
976.90 298.29 1438.2
983.37 299.12 1442.2
1014.34 307.38 1482.0
1038.76 313.59 1511.9
1019.07 306.49 1477.7
993.64 297.72 1435.4
988.87 295.19 1423.2
991.39 294.84 1421.5
1008.04 298.68 1440.1
997.54 294.48 1419.8
981.85 288.78 1392.3
1009.35 295.78 1426.1
1025.55 299.43 1443.7
1010.32 293.91 1417.1
1001.31 290.23 1399.3
1002.01 289.39 1395.3
998.66 287.39 1385.6
977.36 280.25 1351.2
954.78 272.79 1315.3
972.72 276.93 1335.2
1008.19 286.01 1379.0
1007.63 284.84 1373.3
984.83 277.42 1337.5
981.24 275.44 1328.0
989.37 276.75 1334.3
991.63 276.41 1332.7
984.44 273.46 1318.5
985.48 272.80 1315.3
1000.15 275.90 1330.2
1004.76 276.22 1331.8
1001.03 274.26 1322.3
1002.64 273.76 1319.9
1007.83 274.24 1322.2
997.44 270.49 1304.2
984.59 266.10 1283.0
993.33 267.56 1290.0
1003.30 269.34 1298.6
1009.07 269.98 1301.7
1020.90 272.24 1312.6
1028.51 273.36 1318.0
1030.06 272.86 1315.6
1048.05 276.71 1334.2
1072.83 282.32 1361.2
1071.36 281.01 1354.9
1058.83 276.82 1334.7
1067.75 278.24 1341.5
1109.33 288.14 1389.2
1154.76 298.97 1441.5
1182.43 305.14 1471.2
1126.28 417.73 2039.5
1092.16 403.18 1968.5
1090.82 400.81 1956.9
1099.53 402.14 1963.4
1102.95 401.54 1960.5
1072.94 388.82 1898.4
1065.03 384.19 1875.8
1093.13 392.53 1916.5
1079.78 385.98 1884.6
1054.02 375.08 1831.3
1041.35 368.91 1801.2
1039.44 366.59 1789.9
1050.38 368.80 1800.7
1042.45 364.40 1779.1
1049.41 365.21 1783.1
1079.43 374.01 1826.1
1090.51 376.20 1836.8
1085.49 372.84 1820.4
1075.34 367.76 1795.6
1061.03 361.30 1764.0
1035.90 351.23 1714.9
1011.08 341.35 1666.6
1018.88 342.52 1672.3
1027.73 344.03 1679.7
1017.52 339.17 1656.0
1010.32 335.36 1637.4
994.74 328.81 1605.4
983.21 323.64 1580.2
985.14 322.93 1576.7
986.54 322.05 1572.4
1015.76 330.23 1612.3
1030.37 333.60 1628.8
1006.47 324.53 1584.5
1007.83 323.65 1580.2
1019.81 326.17 1592.5
1021.70 325.46 1589.1
1020.91 323.90 1581.4
1008.28 318.62 1555.6
999.86 314.70 1536.5
1002.69 314.34 1534.7
1000.64 312.45 1525.5
1000.19 311.08 1518.8
992.63 307.52 1501.5
985.56 304.14 1484.9
997.55 306.64 1497.2
1001.37 306.62 1497.1
997.48 304.25 1485.5
1008.98 306.57 1496.8
1013.34 306.72 1497.5
998.85 301.18 1470.5
1000.94 300.66 1468.0
1012.47 302.98 1479.3
1016.79 303.12 1480.0
1011.03 300.27 1466.0
1000.73 296.09 1445.7
998.79 294.42 1437.5
1005.28 295.23 1441.5
1019.70 298.36 1456.7
1006.39 293.37 1432.4
981.05 284.94 1391.2
998.30 288.89 1410.5
1017.90 293.48 1432.9
1007.81 289.51 1413.5
1001.65 286.71 1399.8
1005.23 286.69 1399.8
1008.23 286.51 1398.9
992.15 280.93 1371.6
971.91 274.22 1338.9
991.06 278.62 1360.4
1003.87 281.23 1373.1
981.71 274.04 1338.0
982.23 273.23 1334.0
1000.92 277.45 1354.6
990.29 273.54 1335.6
974.88 268.35 1310.2
973.56 267.05 1303.9
981.08 268.18 1309.4
1001.07 272.71 1331.5
1011.63 274.63 1340.9
1003.15 271.40 1325.1
999.99 269.62 1316.4
1005.77 270.26 1319.5
996.57 266.88 1303.0
980.70 261.74 1277.9
984.62 261.90 1278.7
999.40 264.94 1293.6
1010.61 267.02 1303.7
1022.44 269.24 1314.6
1031.28 270.67 1321.5
1034.65 270.65 1321.5
1053.27 274.62 1340.8
1086.62 282.38 1378.7
1099.26 284.73 1390.2
1099.06 283.74 1385.4
1122.20 288.77 1409.9
1129.40 289.68 1414.4
1133.52 289.80 1414.9
1164.86 296.85 1449.4
1136.24 416.09 2057.6
1120.29 408.33 2019.2
1098.91 398.68 1971.5
1088.89 393.21 1944.4
1096.62 394.18 1949.2
1071.41 383.35 1895.7
1056.20 376.18 1860.2
1077.45 382.00 1889.0
1089.50 384.53 1901.5
1087.83 382.21 1890.1
1065.91 372.83 1843.7
1055.67 367.60 1817.8
1049.79 363.93 1799.6
1024.42 353.56 1748.4
1018.33 349.91 1730.3
1035.72 354.33 1752.2
1048.68 357.19 1766.3
1045.03 354.40 1752.5
1029.17 347.51 1718.5
1010.13 339.61 1679.4
1013.87 339.41 1678.4
1018.11 339.37 1678.2
1007.99 334.57 1654.4
1001.37 330.96 1636.6
1000.36 329.23 1628.1
1001.38 328.18 1622.9
1000.82 326.63 1615.2
1005.44 326.77 1615.9
1005.35 325.38 1609.0
1004.71 323.83 1601.4
1002.47 321.78 1591.2
986.48 315.35 1559.4
979.35 311.79 1541.8
997.07 316.14 1563.4
999.98 315.78 1561.6
993.28 312.40 1544.9
1018.60 319.08 1577.9
1031.17 321.72 1590.9
1015.28 315.51 1560.2
1009.52 312.47 1545.2
996.68 307.28 1519.5
986.44 302.92 1498.0
1005.49 307.56 1520.9
1024.63 312.19 1543.8
1012.67 307.35 1519.8
993.50 300.36 1485.3
999.48 301.00 1488.5
1021.46 306.44 1515.4
1029.72 307.73 1521.8
1020.26 303.74 1502.0
1007.96 298.94 1478.3
1005.59 297.10 1469.2
1003.18 295.28 1460.2
990.66 290.49 1436.5
986.48 288.18 1425.1
990.69 288.33 1425.8
987.00 286.19 1415.2
991.76 286.51 1416.8
1020.34 293.68 1452.3
1037.11 297.41 1470.7
1031.70 294.77 1457.7
1027.97 292.63 1447.1
1013.30 287.41 1421.3
1003.14 283.50 1401.9
1016.51 286.24 1415.5
1028.77 288.65 1427.4
1012.15 282.97 1399.3
992.53 276.49 1367.3
994.29 276.00 1364.8
990.23 273.89 1354.4
979.70 270.02 1335.3
990.17 271.95 1344.8
1026.48 280.93 1389.2
1032.36 281.55 1392.3
998.19 271.28 1341.5
980.96 265.68 1313.8
979.03 264.24 1306.7
990.72 266.47 1317.7
1010.77 270.93 1339.8
1011.22 270.12 1335.8
1008.68 268.52 1327.9
1013.88 268.99 1330.2
1020.89 269.93 1334.8
1020.69 268.97 1330.1
1019.28 267.69 1323.7
1027.50 268.94 1329.9
1015.16 264.83 1309.6
1002.76 260.72 1289.3
1032.21 267.48 1322.7
1059.94 273.76 1353.8
1048.73 269.97 1335.0
1047.84 268.85 1329.5
1077.56 275.57 1362.7
1100.02 280.40 1386.6
1132.39 287.71 1422.7
1153.17 292.04 1444.1
1144.38 288.87 1428.5
1158.42 291.47 1441.4
1187.38 297.80 1472.6
1130.49 408.67 2047.2
1119.77 402.91 2018.3
1103.65 395.26 1980.0
1089.31 388.32 1945.2
1092.21 387.56 1941.4
1095.09 386.80 1937.6
1107.69 389.46 1950.9
1093.97 382.89 1918.0
1074.73 374.45 1875.7
1079.89 374.56 1876.3
1065.33 367.85 1842.7
1049.14 360.64 1806.6
1035.29 354.30 1774.8
1015.84 346.10 1733.7
1015.21 344.37 1725.0
1034.61 349.41 1750.3
1048.57 352.57 1766.1
1036.33 346.95 1737.9
1012.84 337.61 1691.2
1002.38 332.69 1666.5
1014.24 335.18 1679.0
1030.75 339.18 1699.0
1033.49 338.63 1696.3
1024.38 334.22 1674.2
1020.85 331.67 1661.4
1031.26 333.64 1671.3
1039.10 334.77 1677.0
1034.45 331.89 1662.5
1025.05 327.51 1640.6
1013.99 322.63 1616.2
1001.25 317.27 1589.3
998.96 315.25 1579.2
1005.61 316.05 1583.2
1008.03 315.52 1580.5
997.15 310.85 1557.1
993.10 308.34 1544.6
1020.57 315.60 1580.9
1039.58 320.19 1603.9
1030.17 316.03 1583.1
1015.28 310.22 1554.0
993.24 302.29 1514.3
988.42 299.64 1501.0
1014.01 306.19 1533.8
1030.44 309.94 1552.6
1015.21 304.17 1523.7
1007.56 300.70 1506.3
1025.13 304.77 1526.7
1026.78 304.09 1523.3
1015.70 299.65 1501.0
1012.86 297.67 1491.1
1007.19 294.88 1477.1
1004.82 293.07 1468.1
1003.53 291.59 1460.7
988.76 286.22 1433.8
982.88 283.45 1419.9
993.84 285.54 1430.4
996.94 285.37 1429.5
1001.72 285.68 1431.0
1031.47 293.07 1468.1
1038.03 293.85 1472.0
1021.79 288.20 1443.7
1033.46 290.42 1454.8
1034.85 289.76 1451.5
1024.73 285.89 1432.1
1037.00 288.26 1444.0
1025.65 284.08 1423.0
987.61 272.57 1365.4
976.62 268.57 1345.3
985.32 270.00 1352.5
987.06 269.52 1350.1
982.36 267.28 1338.9
979.37 265.53 1330.1
998.65 269.81 1351.6
1023.29 275.50 1380.1
1007.94 270.42 1354.6
993.10 265.52 1330.0
994.16 264.88 1326.9
982.74 260.93 1307.1
978.98 259.04 1297.6
994.26 262.19 1313.4
1006.01 264.38 1324.3
1019.59 267.04 1337.7
1034.41 270.00 1352.5
1034.25 269.04 1347.7
1032.26 267.62 1340.6
1037.49 268.08 1342.9
1021.54 263.07 1317.8
1003.69 257.61 1290.5
1025.25 262.27 1313.8
1054.19 268.78 1346.4
1046.61 265.97 1332.3
1045.11 264.71 1326.0
1072.99 270.89 1356.9
1073.96 270.24 1353.7
1081.68 271.30 1359.0
1134.42 283.60 1420.7
1166.97 290.80 1456.7
1181.06 293.36 1469.5
1209.46 299.45 1500.0
1124.10 404.89 2054.9
1118.26 400.89 2034.6
1085.66 387.37 1966.0
1064.74 378.13 1919.1
1092.08 386.04 1959.2
1119.10 393.76 1998.4
1113.89 390.12 1979.9
1108.12 386.32 1960.6
1093.99 379.65 1926.8
1058.24 365.57 1855.4
1039.36 357.43 1814.0
1043.91 357.37 1813.7
1048.46 357.32 1813.5
1050.52 356.43 1808.9
1052.57 355.53 1804.4
1048.61 352.63 1789.7
1036.09 346.88 1760.5
1044.52 348.17 1767.1
1065.06 353.47 1793.9
1059.94 350.24 1777.5
1032.47 339.69 1724.0
1017.49 333.31 1691.6
1019.20 332.44 1687.2
1026.53 333.40 1692.1
1025.14 331.54 1682.6
1013.43 326.36 1656.3
1007.28 323.01 1639.3
1015.58 324.30 1645.9
1028.56 327.07 1660.0
1027.53 325.38 1651.4
1022.81 322.54 1637.0
1016.97 319.38 1620.9
996.36 311.62 1581.5
986.66 307.32 1559.7
1001.21 310.58 1576.3
1012.11 312.68 1586.9
1013.99 312.00 1583.4
1023.33 313.60 1591.6
1034.31 315.69 1602.2
1036.19 315.00 1598.7
1014.92 307.31 1559.6
989.19 298.33 1514.1
987.10 296.52 1504.9
1001.79 299.75 1521.3
1018.17 303.46 1540.1
1025.89 304.56 1545.7
