ply
format ascii 1.0
element vertex 2425
property float x
property float y
property float z
end_header
59.11 -283.08 599.9
46.12 -204.74 433.9
46.06 -199.60 423.0
44.94 -190.21 403.1
36.43 -150.69 319.4
34.07 -131.92 279.6
36.79 -139.51 295.7
35.50 -131.85 279.4
35.63 -129.69 274.9
39.54 -141.10 299.0
40.67 -142.33 301.6
37.37 -128.31 271.9
44.89 -148.55 314.8
50.51 -164.16 347.9
-70.24 -321.36 677.3
-64.04 -300.52 633.4
-60.11 -289.48 610.1
-56.12 -277.58 585.1
-50.84 -258.41 544.7
-44.29 -231.55 488.0
-37.47 -201.68 425.1
-33.76 -187.19 394.5
-32.74 -187.22 394.6
-31.00 -182.98 385.7
-27.27 -166.33 350.6
-26.02 -164.22 346.1
-28.27 -184.78 389.5
-26.45 -179.25 377.8
-22.37 -157.45 331.9
-21.98 -160.90 339.1
-22.79 -173.76 366.2
-21.14 -168.21 354.6
-16.62 -138.27 291.4
-17.78 -171.29 361.0
-19.04 -193.58 408.0
-20.37 -219.29 462.2
-20.45 -233.88 492.9
-21.42 -261.31 550.8
-22.25 -290.90 613.1
-19.69 -277.21 584.3
74.22 -424.46 894.6
72.83 -403.87 851.2
70.10 -377.30 795.2
66.43 -347.32 732.1
63.69 -323.77 682.4
60.53 -299.36 631.0
59.67 -287.34 605.6
58.13 -272.77 574.9
43.18 -188.13 396.5
41.79 -177.85 374.9
33.64 -133.82 282.1
35.13 -136.77 288.3
37.32 -142.27 299.9
35.58 -132.87 280.0
35.59 -130.28 274.6
39.14 -140.45 296.0
40.99 -144.25 304.0
38.31 -132.29 278.8
42.16 -140.29 295.7
49.42 -161.50 340.4
93.14 -270.55 570.2
-54.77 -272.38 571.0
-49.27 -251.84 527.9
-44.81 -235.59 493.9
-40.05 -216.75 454.4
-34.03 -189.74 397.7
-30.54 -175.61 368.1
-30.24 -179.50 376.3
-27.80 -170.51 357.4
-23.63 -149.92 314.3
-23.14 -152.09 318.8
-23.90 -162.86 341.4
-22.59 -159.87 335.1
-22.13 -162.90 341.5
-22.88 -175.39 367.7
-21.39 -171.11 358.7
-16.92 -155.69 326.4
-17.32 -167.75 351.7
-17.80 -181.96 381.4
-19.04 -206.07 432.0
-19.04 -219.00 459.1
-18.63 -228.48 479.0
-18.07 -237.54 497.9
-18.82 -266.39 558.4
-19.37 -296.97 622.5
-18.66 -312.05 654.1
-17.71 -325.84 683.1
-16.51 -337.48 707.5
-15.33 -352.56 739.1
71.99 -427.28 895.7
70.26 -404.02 846.9
69.98 -390.21 818.0
68.76 -372.12 780.1
64.57 -339.43 711.5
59.26 -302.90 635.0
54.00 -268.52 562.9
52.43 -253.89 532.2
55.53 -261.98 549.2
53.03 -243.92 511.3
43.83 -196.72 412.4
40.69 -178.25 373.7
44.05 -188.49 395.1
42.81 -179.03 375.3
39.48 -161.43 338.4
38.10 -152.40 319.5
30.72 -120.26 252.1
35.03 -123.95 259.8
36.06 -125.19 262.4
96.26 -281.13 589.3
108.56 -312.12 654.3
-47.46 -243.91 508.5
-45.58 -240.94 502.3
-28.19 -173.85 362.5
-28.14 -179.49 374.2
-23.58 -155.78 324.8
-20.47 -140.27 292.5
-21.05 -149.79 312.3
-22.40 -165.78 345.6
-20.17 -155.44 324.1
-15.57 -125.23 261.1
-16.33 -137.34 286.3
-19.71 -173.64 362.0
-17.47 -161.56 336.9
-13.89 -135.23 281.9
-14.59 -149.93 312.6
-15.92 -173.28 361.3
-16.33 -188.85 393.7
-16.44 -202.70 422.6
-17.79 -235.13 490.2
-20.20 -287.45 599.3
-20.47 -315.57 657.9
-19.51 -328.13 684.1
-17.74 -328.15 684.2
-15.80 -324.71 677.0
-14.64 -338.56 705.9
-13.60 -359.33 749.2
67.80 -404.59 843.5
65.05 -376.05 784.1
64.45 -361.33 753.3
65.36 -355.66 741.5
62.63 -331.02 690.2
55.43 -284.85 593.9
49.81 -249.03 519.2
47.69 -232.18 484.1
49.93 -236.87 493.9
51.86 -239.83 500.0
47.13 -212.66 443.4
41.04 -180.76 376.9
41.31 -177.71 370.5
42.97 -180.68 376.7
42.26 -173.75 362.3
40.84 -164.25 342.5
33.09 -130.25 271.6
33.26 -120.67 251.6
36.44 -129.65 270.3
39.71 -138.62 289.0
40.83 -139.87 291.6
43.99 -147.98 308.5
48.16 -159.09 331.7
47.55 -154.32 321.8
91.37 -272.63 568.4
102.86 -302.06 629.8
115.56 -334.03 696.4
-55.18 -277.39 575.2
-54.03 -279.18 578.9
-49.77 -264.51 548.5
-29.98 -185.88 385.5
-30.27 -194.15 402.6
-25.97 -172.51 357.7
-19.17 -142.66 295.8
-16.62 -128.80 267.1
-17.19 -145.32 301.4
-19.79 -175.27 363.5
-16.89 -157.07 325.7
-13.96 -136.69 283.5
-15.41 -159.27 330.3
-15.39 -204.47 424.0
-18.93 -270.91 561.8
-20.17 -312.61 648.3
-18.57 -313.94 651.0
-16.23 -301.80 625.8
-14.67 -303.11 628.6
-14.01 -325.71 675.4
-12.90 -342.66 710.6
-11.11 -344.41 714.2
67.51 -418.56 868.0
60.81 -353.45 733.0
58.55 -330.00 684.3
56.75 -310.46 643.8
54.01 -287.02 595.2
47.00 -242.82 503.5
42.78 -215.07 446.0
42.63 -203.31 421.6
42.13 -195.91 406.3
40.41 -183.33 380.2
37.29 -165.13 342.4
33.97 -146.94 304.7
31.99 -135.24 280.5
32.40 -133.91 277.7
32.26 -130.43 270.5
31.42 -124.35 257.9
29.30 -113.52 235.4
28.42 -107.89 223.7
31.89 -118.64 246.0
37.84 -138.02 286.2
43.28 -154.80 321.0
44.96 -157.77 327.2
44.29 -152.55 316.4
47.64 -161.13 334.1
51.87 -172.28 357.3
52.51 -171.36 355.4
54.76 -175.61 364.2
89.27 -272.20 564.5
95.15 -285.44 591.9
106.40 -314.13 651.4
118.40 -344.10 713.6
-59.77 -302.07 623.1
-53.73 -279.09 575.7
-35.88 -209.69 432.5
-33.54 -202.33 417.3
-25.42 -169.78 350.2
-22.88 -158.48 326.9
-17.47 -130.65 269.5
-17.03 -151.63 312.8
-16.78 -156.88 323.6
-16.38 -161.25 332.6
-16.40 -170.42 351.5
-15.30 -168.26 347.1
-14.49 -208.43 429.9
-16.90 -263.39 543.3
-16.37 -278.24 573.9
-15.35 -286.97 591.9
-14.74 -306.18 631.5
-13.57 -317.10 654.1
-12.41 -331.51 683.8
-11.14 -347.22 716.2
65.14 -420.02 866.4
64.12 -386.82 797.9
58.89 -344.12 709.8
52.98 -291.37 601.0
52.73 -281.75 581.2
44.61 -231.71 477.9
39.39 -199.06 410.6
40.44 -199.02 410.5
41.86 -200.72 414.0
38.00 -177.65 366.4
32.75 -149.39 308.1
32.18 -143.28 295.5
31.54 -137.17 282.9
30.28 -125.82 259.5
30.09 -122.32 252.3
29.10 -115.78 238.8
31.05 -120.96 249.5
33.84 -129.16 266.4
34.18 -127.83 263.7
37.22 -136.46 281.5
43.11 -155.04 319.8
45.03 -158.89 327.7
46.87 -162.31 334.8
52.82 -179.57 370.4
58.94 -196.82 406.0
61.29 -201.09 414.8
62.62 -201.89 416.4
70.36 -223.00 460.0
101.78 -306.98 633.2
112.98 -335.36 691.7
-59.45 -302.07 619.7
-38.08 -223.70 459.0
-26.12 -181.90 373.2
-26.85 -194.18 398.4
-22.39 -168.40 345.5
-18.95 -161.90 332.2
-17.30 -154.91 317.8
-14.90 -140.05 287.3
-14.07 -139.19 285.6
-13.71 -143.14 293.7
-14.33 -158.48 325.2
-14.27 -167.69 344.0
-14.11 -204.08 418.7
-14.73 -230.81 473.5
-14.04 -240.02 492.4
-13.07 -245.73 504.2
-12.90 -269.39 552.7
-12.30 -289.12 593.2
-11.39 -305.78 627.4
-10.56 -330.76 678.6
64.59 -433.71 889.8
61.16 -396.48 813.5
61.31 -384.18 788.2
61.90 -375.38 770.2
57.71 -339.05 695.6
53.45 -304.48 624.7
57.58 -318.40 653.3
55.85 -300.00 615.5
46.73 -244.06 500.7
42.53 -216.07 443.3
44.28 -219.09 449.5
44.08 -212.50 436.0
38.52 -181.04 371.4
32.91 -150.91 309.6
31.76 -142.15 291.7
32.61 -142.56 292.5
32.64 -139.47 286.2
30.46 -127.24 261.0
27.77 -111.06 227.9
31.24 -122.35 251.0
33.13 -127.11 260.8
39.94 -144.40 296.3
44.38 -157.41 323.0
48.70 -169.54 347.8
52.00 -177.74 364.7
55.39 -185.94 381.5
59.39 -195.88 401.9
83.64 -262.08 537.7
-51.90 -280.24 571.9
-23.74 -160.27 327.1
-24.15 -169.07 345.0
-25.50 -185.35 378.3
-21.50 -162.53 331.7
-18.19 -143.22 292.3
-18.93 -155.54 317.4
-19.64 -168.74 344.4
-17.58 -158.22 322.9
-13.91 -131.42 268.2
-12.77 -134.09 273.6
-14.79 -164.44 335.6
-14.74 -174.13 355.4
-14.30 -193.06 394.0
-15.73 -228.70 466.7
-15.36 -241.91 493.7
-13.82 -237.53 484.8
-12.01 -226.99 463.2
-11.27 -236.68 483.0
-10.99 -259.56 529.7
-10.35 -279.37 570.1
-9.69 -305.34 623.1
-8.92 -337.03 687.8
61.99 -418.45 854.0
59.89 -390.29 796.5
60.76 -382.76 781.1
62.19 -379.19 773.9
58.32 -344.46 703.0
53.70 -307.54 627.6
52.32 -290.82 593.5
45.32 -244.72 499.4
40.09 -210.47 429.5
40.17 -205.17 418.7
46.27 -230.11 469.6
50.00 -242.33 494.6
40.61 -191.90 391.6
30.69 -141.48 288.7
29.88 -134.44 274.4
31.18 -137.04 279.7
31.69 -136.13 277.8
30.22 -126.91 259.0
28.86 -118.57 242.0
31.00 -124.66 254.4
29.87 -117.63 240.1
36.08 -133.71 272.9
39.42 -143.28 292.4
64.06 -212.43 433.5
80.15 -256.76 524.0
89.79 -282.82 577.2
-61.99 -327.18 664.2
-56.22 -305.22 619.6
-50.61 -282.81 574.1
-29.00 -190.02 385.8
-24.63 -167.12 339.3
-22.25 -156.56 317.8
-21.31 -155.70 316.1
-19.21 -146.02 296.4
-17.89 -141.63 287.5
-18.32 -151.35 307.3
-18.75 -161.96 328.8
-18.29 -165.51 336.0
-16.31 -154.94 314.5
-13.16 -131.55 267.1
-12.80 -135.10 274.3
-14.26 -159.40 323.6
-13.46 -159.85 324.5
-12.45 -157.66 320.1
-13.90 -188.59 382.8
-13.60 -198.76 403.5
-11.72 -185.52 376.6
-11.11 -234.59 476.2
-10.83 -257.14 522.0
-10.12 -274.82 557.9
-9.56 -302.66 614.4
55.17 -436.79 886.7
59.29 -417.21 847.0
57.64 -391.13 794.0
56.80 -372.11 755.4
59.09 -374.25 759.8
62.42 -382.57 776.6
60.34 -358.27 727.3
51.35 -295.64 600.2
43.28 -241.84 491.0
42.84 -232.55 472.1
44.05 -232.50 472.0
37.55 -192.84 391.5
37.77 -188.83 383.3
45.08 -219.60 445.8
38.16 -181.28 368.0
27.71 -125.34 254.5
28.16 -124.43 252.6
27.89 -120.45 244.5
28.73 -121.30 246.2
30.32 -125.22 254.2
34.99 -141.45 287.1
35.95 -142.29 288.9
34.51 -128.57 261.0
35.78 -130.73 265.4
67.81 -226.04 458.9
79.94 -261.88 531.6
86.73 -279.31 567.0
-51.68 -299.10 604.0
-46.71 -278.80 563.0
-42.10 -259.37 523.8
-34.77 -221.34 447.0
-17.76 -141.34 285.4
-20.33 -168.83 340.9
-19.50 -169.29 341.9
-17.88 -162.67 328.5
-17.55 -167.56 338.4
-16.23 -163.14 329.5
-13.33 -141.44 285.6
-12.23 -137.46 277.6
-12.78 -152.55 308.1
-12.99 -165.42 334.1
-14.40 -196.48 396.8
-14.10 -207.14 418.3
-10.03 -273.76 552.8
52.95 -421.36 850.9
55.78 -426.18 860.6
56.92 -418.15 844.4
55.47 -392.40 792.4
55.76 -380.38 768.2
56.87 -374.57 756.4
53.96 -343.52 693.7
51.79 -319.12 644.5
55.53 -331.46 669.4
54.28 -314.15 634.4
47.25 -265.43 536.0
47.74 -260.51 526.1
47.09 -249.85 504.6
38.80 -200.28 404.5
37.02 -186.10 375.8
42.23 -206.83 417.7
39.23 -187.35 378.3
32.63 -148.40 299.7
33.10 -147.04 296.9
27.86 -120.96 244.3
40.23 -160.09 323.3
38.91 -151.67 306.3
36.81 -140.61 284.0
39.18 -146.74 296.3
78.79 -259.47 524.0
-51.11 -306.63 616.0
-45.43 -281.35 565.2
-37.02 -236.94 476.0
-19.94 -166.43 334.3
-18.41 -160.66 322.8
-15.77 -144.21 289.7
-14.42 -138.44 278.1
-14.58 -147.36 296.0
-13.23 -141.14 283.5
-12.10 -136.70 274.6
-12.77 -153.19 307.7
-13.51 -199.55 400.9
-12.81 -204.91 411.6
-10.43 -250.40 503.0
-9.50 -260.65 523.6
-5.53 -353.81 710.8
-3.76 -360.95 725.1
48.35 -403.60 810.8
50.05 -400.44 804.5
50.98 -391.49 786.5
50.24 -370.97 745.3
49.85 -354.46 712.1
50.97 -349.52 702.2
48.89 -323.68 650.3
39.52 -252.95 508.2
39.83 -246.68 495.6
49.55 -297.30 597.3
50.40 -293.25 589.1
46.65 -263.43 529.2
46.80 -256.72 515.7
45.80 -244.24 490.7
39.27 -203.79 409.4
39.53 -199.75 401.3
44.17 -217.47 436.9
40.86 -196.12 394.0
36.48 -166.76 335.0
34.96 -156.08 313.6
27.13 -118.37 237.8
31.42 -131.16 263.5
37.87 -151.47 304.3
39.32 -154.08 309.5
39.54 -151.83 305.0
43.14 -162.41 326.3
43.25 -159.71 320.8
84.98 -281.32 565.2
-20.13 -168.91 337.6
-18.64 -163.56 326.9
-15.85 -145.71 291.2
-14.68 -141.70 283.2
-15.14 -153.78 307.3
-13.47 -144.41 288.6
-12.17 -138.16 276.1
-12.42 -149.80 299.4
-10.04 -129.24 258.3
-9.41 -201.77 403.2
-9.66 -233.10 465.8
-7.46 -205.81 411.3
-6.76 -326.20 651.9
-5.66 -364.24 727.9
-3.75 -361.56 722.6
0.00 -293.55 586.7
43.45 -381.20 761.8
46.56 -374.41 748.3
47.80 -369.00 737.4
46.45 -344.83 689.1
46.25 -318.83 637.2
45.42 -302.26 604.1
40.04 -257.57 514.8
44.59 -277.62 554.8
52.38 -315.95 631.4
51.19 -299.38 598.3
46.52 -264.09 527.8
45.78 -252.44 504.5
46.08 -247.04 493.7
40.34 -210.44 420.6
33.96 -172.51 344.8
33.41 -165.34 330.4
33.61 -162.19 324.1
31.61 -148.79 297.4
31.31 -143.86 287.5
28.97 -130.02 259.8
31.92 -133.93 267.7
34.12 -140.13 280.0
37.61 -151.21 302.2
39.62 -156.06 311.9
39.38 -152.02 303.8
42.74 -161.76 323.3
48.60 -180.37 360.5
55.62 -202.53 404.8
-41.04 -265.36 527.6
-37.13 -248.37 493.8
-25.55 -190.62 379.0
-20.93 -162.39 322.9
-20.37 -164.65 327.4
-20.85 -175.89 349.7
-14.95 -144.98 288.2
-15.39 -157.11 312.4
-13.58 -146.35 291.0
-11.09 -126.61 251.7
-10.48 -127.07 252.6
-10.42 -134.72 267.8
-8.23 -177.45 352.8
-6.97 -193.19 384.1
-7.11 -230.03 457.4
-6.92 -268.68 534.2
-6.72 -325.75 647.7
-5.43 -350.92 697.7
1.82 -352.72 701.3
20.38 -304.06 604.5
42.15 -408.90 813.0
41.54 -383.72 762.9
41.47 -365.73 727.1
42.77 -360.75 717.2
45.34 -366.54 728.8
45.55 -353.48 702.8
42.56 -317.55 631.4
41.13 -295.53 587.6
43.94 -304.46 605.3
44.63 -298.58 593.6
39.72 -256.85 510.7
39.89 -249.63 496.3
43.76 -265.28 527.4
42.07 -247.31 491.7
36.12 -200.19 398.0
37.89 -204.19 406.0
36.89 -193.40 384.5
34.63 -176.80 351.5
32.12 -159.76 317.6
30.26 -146.75 291.8
31.76 -150.30 298.8
35.15 -162.34 322.8
34.19 -154.26 306.7
31.63 -139.47 277.3
28.18 -118.85 236.3
31.17 -128.65 255.8
35.80 -144.69 287.7
37.89 -150.01 298.3
37.27 -144.62 287.5
40.35 -153.50 305.2
47.11 -175.77 349.5
58.12 -212.73 423.0
59.32 -213.12 423.7
-46.67 -303.36 600.1
-41.51 -279.10 552.1
-26.36 -197.71 391.1
-20.73 -161.70 319.8
-18.19 -147.76 292.3
-16.95 -143.72 284.3
-17.03 -150.95 298.6
-17.03 -158.18 312.9
-10.81 -123.98 245.2
-13.24 -161.41 319.3
-15.57 -202.46 400.5
-12.95 -180.38 356.8
-7.82 -152.46 301.6
-8.62 -186.75 369.4
-8.33 -202.99 401.5
-7.85 -218.79 432.8
-7.26 -235.94 466.7
-6.33 -246.78 488.1
-5.17 -252.20 498.8
0.00 -338.83 670.2
1.91 -373.12 738.0
3.92 -382.14 755.9
16.16 -393.81 779.0
17.11 -370.79 733.4
17.88 -348.67 689.7
19.39 -343.68 679.8
21.32 -346.37 685.1
22.91 -343.64 679.7
23.63 -329.19 651.1
25.25 -328.26 649.3
29.37 -357.99 708.1
32.58 -373.74 739.3
34.95 -378.66 749.0
35.05 -359.69 711.5
33.42 -325.85 644.5
31.50 -292.47 578.5
32.69 -289.73 573.1
36.45 -309.07 611.3
39.09 -317.59 628.2
38.69 -301.78 596.9
36.93 -276.97 547.9
38.10 -275.13 544.2
40.41 -281.39 556.6
38.23 -257.04 508.4
40.83 -248.82 492.2
37.00 -218.63 432.5
37.45 -208.66 412.7
39.26 -212.67 420.7
38.21 -201.39 398.4
35.03 -179.78 355.6
31.72 -158.62 313.8
31.98 -155.89 308.4
36.17 -172.03 340.3
37.62 -174.68 345.5
34.75 -157.58 311.7
32.00 -141.84 280.6
28.69 -124.30 245.9
30.37 -128.76 254.7
35.68 -148.02 292.8
56.35 -207.34 410.1
66.45 -239.96 474.7
-32.57 -236.47 465.4
-29.45 -222.03 436.9
-23.31 -182.71 359.6
-20.11 -164.19 323.1
-19.64 -167.38 329.4
-20.67 -184.14 362.4
-20.22 -188.69 371.3
-12.29 -141.68 278.8
-15.08 -184.70 363.5
-15.28 -199.66 392.9
-10.54 -147.61 290.5
-9.49 -143.09 281.6
-10.18 -166.19 327.1
-8.97 -159.86 314.6
-8.94 -175.27 344.9
-9.23 -201.10 395.7
-8.49 -207.90 409.1
-7.28 -203.83 401.1
-6.10 -199.31 392.2
0.00 -337.50 664.2
1.85 -362.41 713.2
3.83 -375.09 738.2
5.59 -365.12 718.5
7.32 -358.77 706.0
9.45 -370.54 729.2
11.05 -361.02 710.5
12.20 -341.53 672.1
14.14 -346.50 681.9
14.39 -313.42 616.8
13.31 -260.87 513.4
14.94 -266.29 524.0
16.16 -264.01 519.5
17.15 -258.56 508.8
17.98 -251.74 495.4
18.47 -241.31 474.9
20.58 -252.16 496.2
21.95 -253.04 498.0
21.37 -232.65 457.8
24.44 -252.09 496.1
27.34 -267.90 527.2
25.89 -241.63 475.5
27.17 -242.05 476.3
28.35 -241.57 475.4
29.13 -237.92 468.2
30.86 -241.96 476.2
30.83 -232.43 457.4
33.14 -240.54 473.4
37.01 -259.04 509.8
37.05 -250.41 492.8
36.52 -238.62 469.6
38.95 -246.26 484.6
40.94 -250.74 493.4
43.43 -257.92 507.6
46.07 -265.55 522.6
44.59 -249.70 491.4
39.80 -216.70 426.4
37.75 -199.96 393.5
34.03 -175.55 345.5
33.22 -166.94 328.5
36.00 -176.38 347.1
33.30 -159.20 313.3
29.34 -130.70 257.2
29.07 -126.61 249.2
34.36 -146.40 288.1
39.96 -166.64 327.9
39.70 -162.09 319.0
40.06 -160.25 315.4
65.17 -241.01 474.3
97.30 -340.54 670.2
-45.03 -305.88 598.9
-32.42 -236.52 463.1
-29.78 -225.65 441.8
-20.89 -178.96 350.4
-20.29 -181.71 355.8
-17.97 -168.55 330.0
-17.30 -170.39 333.6
-18.01 -186.76 365.7
-16.28 -178.15 348.8
-14.98 -173.62 339.9
-12.37 -152.27 298.1
-11.25 -170.49 333.8
-10.80 -177.32 347.2
-9.16 -180.53 353.5
-10.06 -220.10 430.9
-9.10 -224.20 439.0
-7.74 -217.84 426.5
-6.39 -209.67 410.5
-5.44 -267.89 524.5
-4.58 -300.65 588.7
-2.78 -273.36 535.2
-1.54 -303.38 594.0
0.00 -337.04 659.9
1.73 -341.59 668.8
3.55 -349.78 684.8
4.97 -326.57 639.4
6.43 -316.56 619.8
8.44 -332.47 651.0
10.22 -335.65 657.2
11.91 -335.18 656.3
11.93 -293.78 575.2
10.06 -220.10 430.9
9.88 -194.62 381.1
11.58 -207.34 406.0
12.10 -198.69 389.0
12.45 -188.68 369.4
14.02 -197.30 386.3
15.33 -201.38 394.3
13.40 -165.00 323.1
16.52 -171.31 335.4
20.43 -201.28 394.1
21.84 -204.90 401.2
22.78 -203.96 399.4
23.44 -200.76 393.1
24.62 -202.10 395.7
26.74 -210.70 412.5
27.32 -207.04 405.4
29.80 -217.45 425.8
31.61 -222.41 435.5
29.80 -202.41 396.3
30.98 -196.90 385.5
33.10 -191.81 375.6
33.67 -189.51 371.0
35.78 -195.82 383.4
40.26 -214.36 419.7
35.75 -185.32 362.8
33.90 -171.24 335.3
36.33 -178.90 350.3
32.61 -156.68 306.8
31.52 -144.39 282.7
33.15 -148.43 290.6
33.69 -147.49 288.8
32.63 -139.76 273.6
32.04 -134.30 263.0
37.67 -154.61 302.7
44.63 -179.43 351.3
54.02 -212.82 416.7
61.05 -235.80 461.7
64.49 -244.32 478.4
76.64 -284.88 557.8
-49.32 -336.73 656.0
-41.37 -292.58 570.0
-35.30 -258.89 504.3
-31.73 -241.61 470.7
-24.98 -197.87 385.5
-21.44 -176.92 344.6
-18.75 -161.44 314.5
-15.10 -135.92 264.8
-13.09 -136.42 265.7
-14.68 -161.52 314.7
-13.83 -161.08 313.8
-11.47 -141.93 276.5
-10.75 -151.99 296.1
-13.01 -198.11 385.9
-11.59 -191.27 372.6
-9.36 -168.46 328.2
-10.01 -198.15 386.0
-10.38 -228.29 444.7
-8.84 -218.71 426.1
-7.30 -206.39 402.1
-3.92 -258.93 504.4
-2.65 -262.13 510.6
-1.40 -277.20 540.0
0.00 -303.23 590.7
1.42 -281.77 548.9
2.62 -258.93 504.4
3.85 -254.36 495.5
5.34 -264.41 515.1
7.52 -297.73 580.0
9.45 -311.88 607.6
9.59 -271.23 528.4
8.19 -202.73 394.9
8.32 -183.09 356.7
10.08 -199.52 388.7
10.50 -189.00 368.2
10.02 -165.25 321.9
9.62 -146.53 285.4
10.13 -143.32 279.2
11.17 -147.42 287.2
9.59 -118.66 231.1
10.91 -120.00 233.8
12.08 -125.92 245.3
12.40 -122.72 239.1
13.59 -128.18 249.7
16.47 -141.83 276.3
19.62 -161.87 315.3
21.47 -170.06 331.3
22.27 -169.58 330.3
23.74 -174.11 339.2
24.62 -174.09 339.1
25.96 -165.81 323.0
30.91 -191.28 372.6
28.61 -171.67 334.4
32.84 -191.22 372.5
33.88 -191.64 373.3
36.66 -201.61 392.8
43.96 -235.25 458.3
42.17 -219.73 428.1
35.33 -162.69 316.9
38.16 -171.74 334.6
41.71 -183.51 357.5
43.15 -185.74 361.8
40.52 -170.71 332.6
44.68 -184.29 359.0
41.21 -166.54 324.4
94.40 -352.67 687.0
-42.16 -310.72 602.3
-39.59 -302.98 587.3
-33.47 -266.41 516.4
-27.55 -228.44 442.8
-22.54 -195.05 378.1
-16.25 -146.99 284.9
-15.37 -169.96 329.4
-16.01 -187.38 363.2
-14.04 -174.57 338.4
-11.64 -154.42 299.3
-12.25 -174.14 337.5
-13.53 -207.15 401.5
-13.10 -217.25 421.1
-11.68 -211.30 409.6
-11.29 -224.61 435.3
-10.61 -234.70 454.9
-8.59 -213.62 414.1
-6.51 -185.21 359.0
-2.07 -205.86 399.0
-1.27 -252.17 488.8
0.00 -263.64 511.0
1.15 -229.71 445.2
1.95 -194.40 376.8
2.86 -189.81 367.9
4.40 -218.70 423.9
6.51 -259.04 502.1
7.06 -234.27 454.1
6.24 -124.22 240.8
6.08 -110.00 213.2
6.47 -107.25 207.9
6.95 -106.32 206.1
6.61 -93.94 182.1
6.42 -85.23 165.2
6.63 -82.47 159.9
7.20 -84.30 163.4
8.66 -95.74 185.6
9.62 -100.77 195.3
9.34 -92.98 180.2
9.28 -87.93 170.4
11.27 -97.52 189.0
14.24 -118.11 228.9
16.56 -131.83 255.5
17.76 -135.93 263.5
19.68 -145.06 281.2
18.41 -130.86 253.6
34.27 -219.98 426.4
36.84 -229.09 444.0
31.99 -192.93 373.9
36.63 -214.38 415.5
39.31 -223.48 433.2
37.28 -206.08 399.4
38.28 -185.78 360.1
34.70 -156.92 304.2
45.38 -200.66 388.9
45.11 -195.15 378.2
39.94 -169.11 327.8
49.36 -204.62 396.6
51.04 -207.30 401.8
-31.66 -263.82 508.8
-27.70 -240.87 464.5
-23.11 -210.10 405.2
-15.50 -147.59 284.6
-13.20 -131.97 254.5
-15.16 -159.58 307.8
-16.23 -180.29 347.7
-14.94 -175.71 338.9
-12.53 -178.97 345.2
-12.59 -193.71 373.6
-10.99 -183.14 353.2
-10.73 -195.11 376.3
-11.39 -227.80 439.3
-11.37 -252.66 487.3
-9.96 -248.99 480.2
-8.17 -233.35 450.0
-6.82 -227.38 438.5
-5.02 -200.68 387.0
-3.87 -193.33 372.8
-2.03 -203.46 392.4
-1.18 -235.22 453.6
0.00 -237.06 457.2
1.22 -243.51 469.6
2.47 -246.73 475.8
2.89 -192.87 372.0
3.47 -173.53 334.7
4.88 -195.16 376.4
4.81 -160.18 308.9
4.04 -115.52 222.8
4.05 -101.25 195.3
4.26 -85.14 164.2
4.58 -83.29 160.6
5.22 -86.97 167.7
6.10 -93.86 181.0
6.60 -94.32 181.9
6.28 -83.73 161.5
6.18 -77.28 149.0
6.53 -76.81 148.1
7.24 -80.49 155.2
7.99 -84.16 162.3
8.23 -82.31 158.7
8.50 -80.92 156.1
9.10 -82.75 159.6
9.94 -86.42 166.7
11.80 -98.36 189.7
14.02 -112.13 216.3
16.01 -123.14 237.5
17.68 -130.94 252.5
16.79 -119.89 231.2
24.38 -162.57 313.5
31.88 -205.70 396.7
27.32 -170.78 329.4
34.13 -195.00 376.1
35.64 -187.55 361.7
44.55 -222.77 429.6
46.13 -225.02 434.0
35.31 -168.15 324.3
64.89 -264.84 510.8
-34.55 -267.10 512.5
-31.35 -262.55 503.8
-24.56 -214.59 411.8
-21.92 -200.31 384.4
-16.45 -157.40 302.1
-14.40 -152.36 292.4
-12.44 -166.73 319.9
-12.16 -174.59 335.0
-9.89 -152.90 293.4
-9.48 -173.24 332.4
-10.09 -202.82 389.2
-10.14 -226.39 434.4
-10.08 -253.20 485.9
-9.46 -271.70 521.4
-7.61 -255.07 489.5
-5.47 -219.96 422.1
-3.95 -198.24 380.4
-2.83 -189.93 364.5
0.00 -187.16 359.2
1.03 -207.03 397.3
2.23 -223.67 429.2
2.75 -183.92 352.9
2.78 -139.56 267.8
3.44 -138.17 265.1
3.68 -123.38 236.8
3.72 -106.74 204.8
3.53 -88.71 170.2
3.54 -79.01 151.6
4.09 -82.24 157.8
4.68 -85.47 164.0
4.74 -79.46 152.5
5.11 -78.99 151.6
5.86 -84.06 161.3
6.03 -80.82 155.1
6.10 -76.66 147.1
6.48 -76.65 147.1
6.74 -75.26 144.4
6.94 -73.41 140.9
7.44 -74.79 143.5
7.96 -76.16 146.2
8.49 -77.54 148.8
9.14 -79.84 153.2
10.85 -90.90 174.4
13.54 -108.88 208.9
14.56 -112.56 216.0
15.49 -115.31 221.3
17.60 -126.36 242.5
21.02 -145.71 279.6
23.95 -160.44 307.9
24.74 -160.41 307.8
21.65 -135.96 260.9
32.11 -189.82 364.3
41.79 -239.99 460.5
39.02 -217.84 418.0
41.79 -227.01 435.6
49.35 -261.03 500.9
55.91 -288.14 552.9
53.02 -266.45 511.3
43.26 -212.10 407.0
45.56 -218.03 418.4
45.35 -212.01 406.8
36.13 -165.06 316.7
41.23 -180.15 345.7
43.19 -184.70 354.4
43.32 -177.72 341.0
-17.48 -185.86 354.9
-14.99 -168.26 321.3
-14.40 -171.06 326.6
-16.71 -210.95 402.8
-16.42 -221.17 422.3
-13.18 -190.11 363.0
-10.00 -155.35 296.6
-8.26 -139.13 265.7
-9.57 -214.76 410.1
-10.07 -254.19 485.4
-8.84 -255.13 487.2
-6.45 -217.10 414.5
-5.35 -216.18 412.8
-4.62 -233.35 445.6
-3.23 -217.58 415.5
0.82 -166.09 317.1
1.64 -166.09 317.1
2.66 -179.07 341.9
3.59 -181.39 346.4
3.25 -131.28 250.7
2.87 -96.49 184.2
3.07 -88.60 169.2
3.20 -80.71 154.1
3.29 -73.75 140.8
3.74 -75.60 144.4
4.14 -76.06 145.2
4.19 -70.49 134.6
4.48 -69.56 132.8
5.51 -69.54 132.8
5.93 -70.46 134.5
6.32 -70.92 135.4
6.84 -72.77 138.9
7.66 -77.40 147.8
8.14 -78.31 149.5
8.68 -79.69 152.2
9.23 -81.08 154.8
10.35 -87.09 166.3
11.41 -92.17 176.0
11.33 -87.99 168.0
11.82 -88.44 168.9
13.54 -97.69 186.5
16.55 -115.26 220.1
20.35 -137.00 261.6
20.10 -130.96 250.1
26.55 -157.72 301.2
39.02 -225.21 430.0
43.34 -243.20 464.4
46.65 -254.71 486.4
54.17 -287.94 549.8
55.31 -286.49 547.0
48.21 -243.47 464.9
47.86 -197.32 376.8
-37.68 -332.54 631.8
-22.82 -243.81 463.3
-20.47 -230.81 438.5
-19.56 -233.62 443.9
-17.42 -221.07 420.1
-8.14 -127.09 241.5
-7.62 -128.96 245.0
-8.83 -223.98 425.6
-7.29 -211.42 401.7
-5.95 -201.18 382.3
-5.48 -222.61 423.0
-4.42 -224.47 426.5
-2.95 -199.79 379.6
-1.70 -172.79 328.3
-0.77 -156.49 297.3
0.00 -147.64 280.5
0.70 -141.58 269.0
1.51 -153.22 291.1
2.56 -173.25 329.2
3.03 -153.69 292.0
2.73 -110.84 210.6
2.64 -89.41 169.9
2.99 -86.62 164.6
3.17 -80.56 153.1
3.30 -74.50 141.6
3.65 -74.03 140.7
3.94 -72.63 138.0
5.01 -72.62 138.0
5.26 -71.21 135.3
5.50 -69.81 132.6
6.00 -71.67 136.2
7.65 -73.97 140.5
8.37 -77.21 146.7
9.22 -81.39 154.6
9.51 -80.45 152.9
9.51 -77.18 146.7
9.47 -73.92 140.5
9.83 -73.91 140.4
10.71 -77.62 147.5
12.48 -87.36 166.0
15.72 -106.40 202.2
18.09 -118.46 225.1
17.57 -111.48 211.8
21.14 -130.03 247.1
22.40 -133.72 254.1
21.69 -125.81 239.0
28.89 -162.92 309.6
38.32 -210.22 399.4
51.68 -276.06 524.5
59.44 -309.41 587.9
52.18 -264.82 503.2
47.06 -203.28 386.2
85.91 -355.91 676.2
-30.40 -310.11 586.3
-29.63 -318.08 601.4
-26.30 -298.03 563.5
-14.56 -212.15 401.1
-7.96 -202.87 383.6
-4.76 -194.01 366.8
-3.86 -196.82 372.1
-2.60 -176.72 334.1
-1.51 -153.81 290.8
0.00 -123.43 233.4
0.57 -115.48 218.3
2.01 -136.98 259.0
2.41 -122.95 232.5
2.57 -104.72 198.0
2.82 -95.83 181.2
3.11 -90.69 171.5
3.28 -83.67 158.2
3.57 -80.86 152.9
3.99 -81.33 153.8
4.39 -81.32 153.8
4.62 -78.51 148.5
8.51 -72.36 136.8
8.69 -70.95 134.1
8.98 -70.47 133.2
10.01 -75.59 142.9
11.66 -84.92 160.6
12.27 -86.30 163.2
13.03 -88.62 167.6
16.37 -107.73 203.7
20.33 -129.62 245.1
25.49 -157.57 297.9
30.06 -180.39 341.1
24.87 -144.94 274.0
32.70 -180.29 340.9
52.23 -280.39 530.1
62.14 -325.04 614.6
54.59 -278.41 526.4
-36.27 -371.78 699.5
-29.77 -321.18 604.3
-4.97 -78.34 147.4
-3.32 -56.77 106.8
-10.03 -228.51 429.9
-8.44 -216.32 407.0
-5.93 -173.62 326.7
-3.76 -192.88 362.9
-2.64 -180.68 340.0
-1.53 -156.75 294.9
-0.67 -137.51 258.7
0.00 -129.53 243.7
0.60 -123.43 232.2
1.02 -104.19 196.0
1.99 -101.84 191.6
2.35 -96.20 181.0
2.51 -85.88 161.6
2.72 -79.77 150.1
3.06 -78.36 147.4
3.46 -78.83 148.3
3.94 -80.70 151.8
4.36 -81.17 152.7
10.12 -76.82 144.5
11.26 -82.43 155.1
11.26 -79.61 149.8
10.89 -74.45 140.1
14.90 -95.48 179.7
21.55 -133.84 251.8
28.40 -171.25 322.2
30.43 -178.24 335.4
43.59 -235.18 442.5
62.70 -329.56 620.1
51.25 -262.66 494.2
47.51 -221.34 416.4
40.48 -184.40 347.0
-11.78 -173.27 324.4
-5.11 -80.99 151.7
-6.89 -118.20 221.3
-10.93 -225.13 421.5
-12.22 -279.77 523.8
-10.46 -269.42 504.5
-7.47 -219.97 411.9
-5.71 -195.96 366.9
-4.61 -189.84 355.5
-3.49 -179.95 336.9
-2.59 -177.60 332.5
-1.61 -165.35 309.6
-0.68 -139.44 261.1
0.00 -123.90 232.0
0.55 -112.59 210.8
0.89 -91.39 171.1
1.30 -89.04 166.7
1.86 -95.63 179.1
2.09 -86.21 161.4
2.20 -75.37 141.1
3.15 -72.06 134.9
3.70 -76.30 142.9
10.74 -78.98 147.9
11.05 -78.50 147.0
11.23 -77.08 144.3
22.98 -135.24 253.2
45.37 -245.93 460.5
66.72 -352.39 659.8
69.05 -355.61 665.8
57.97 -291.27 545.4
43.95 -205.77 385.3
31.63 -144.80 271.1
68.63 -307.34 575.5
-11.06 -254.35 473.9
-9.54 -246.80 459.9
-6.78 -200.47 373.6
-5.22 -180.15 335.7
-4.27 -176.84 329.5
-3.22 -166.44 310.1
-2.35 -162.19 302.2
-1.49 -154.63 288.1
-0.65 -135.24 252.0
0.00 -121.06 225.6
0.53 -110.65 206.2
0.90 -93.63 174.5
1.34 -92.68 172.7
1.78 -92.21 171.8
1.98 -81.80 152.4
2.29 -78.96 147.1
2.65 -78.49 146.2
2.81 -72.81 135.7
3.14 -72.33 134.8
3.52 -72.80 135.7
11.36 -84.00 156.5
10.38 -74.08 138.0
10.73 -74.07 138.0
14.13 -88.65 165.2
15.18 -92.40 172.2
17.69 -104.64 195.0
20.90 -120.18 223.9
26.53 -148.43 276.6
41.60 -226.60 422.2
58.30 -309.45 576.6
66.70 -345.18 643.2
65.18 -329.10 613.2
-11.41 -237.26 440.0
-9.26 -214.02 396.9
-6.26 -162.78 301.9
-5.09 -151.39 280.7
-4.70 -162.79 301.9
-3.64 -151.40 280.8
-2.60 -135.27 250.8
-1.77 -122.93 228.0
-1.05 -109.17 202.4
-0.51 -105.85 196.3
0.00 -104.90 194.5
0.53 -110.12 204.2
1.02 -106.32 197.2
1.32 -91.60 169.9
1.62 -84.01 155.8
1.89 -78.79 146.1
2.29 -79.26 147.0
2.70 -80.20 148.7
2.90 -75.46 139.9
3.08 -71.18 132.0
3.29 -68.33 126.7
10.27 -76.26 141.4
10.04 -71.99 133.5
11.27 -78.13 144.9
11.43 -76.70 142.2
12.02 -78.11 144.8
15.24 -96.08 178.2
18.41 -112.63 208.9
20.30 -120.65 223.7
21.86 -126.30 234.2
24.82 -139.52 258.7
35.94 -196.71 364.8
48.49 -258.61 479.6
51.90 -269.90 500.5
-24.78 -369.98 682.8
-23.16 -372.39 687.3
-12.17 -254.34 469.4
-9.60 -222.91 411.4
-6.58 -171.96 317.3
-5.49 -163.86 302.4
-4.59 -160.06 295.4
-3.37 -141.01 260.2
-2.46 -128.63 237.4
-1.72 -119.58 220.7
-1.03 -108.14 199.6
-0.50 -104.81 193.4
0.00 -101.48 187.3
0.49 -103.38 190.8
1.05 -110.05 203.1
1.49 -103.85 191.7
1.65 -86.23 159.1
2.39 -71.45 131.9
2.77 -72.40 133.6
3.10 -71.92 132.7
3.46 -72.40 133.6
9.89 -71.31 131.6
11.53 -80.33 148.2
12.26 -82.69 152.6
13.09 -85.53 157.8
16.35 -103.56 191.1
18.62 -114.47 211.3
19.01 -113.50 209.5
21.59 -125.35 231.3
26.89 -151.91 280.4
33.66 -185.11 341.6
41.62 -223.03 411.6
49.21 -257.15 474.6
59.46 -303.10 559.4
68.43 -340.50 628.4
-21.66 -379.05 696.2
-13.27 -253.35 465.3
-8.67 -202.22 371.4
-7.10 -186.45 342.5
-5.58 -167.34 307.4
-4.48 -156.82 288.0
-3.36 -141.05 259.1
-2.49 -130.53 239.8
-1.82 -127.67 234.5
-1.16 -121.45 223.1
-0.60 -125.28 230.1
0.00 -128.15 235.4
0.54 -113.80 209.0
1.01 -105.67 194.1
1.39 -97.07 178.3
1.51 -79.37 145.8
2.66 -69.80 128.2
3.13 -73.14 134.3
3.64 -76.49 140.5
4.01 -76.48 140.5
4.40 -76.96 141.3
10.02 -72.52 133.2
11.24 -78.71 144.6
12.46 -84.43 155.1
14.17 -93.00 170.8
16.03 -102.04 187.4
16.44 -101.55 186.5
16.76 -100.57 184.7
18.55 -108.18 198.7
21.66 -122.93 225.8
25.77 -142.44 261.6
33.44 -180.04 330.7
44.26 -232.38 426.8
57.26 -293.28 538.7
72.92 -364.61 669.7
-21.23 -373.24 682.3
-14.36 -275.39 503.4
-8.41 -177.53 324.5
-7.04 -165.06 301.7
-5.97 -157.39 287.7
-4.79 -144.44 264.0
-3.79 -133.41 243.9
-2.73 -115.17 210.5
-2.26 -119.02 217.6
-1.82 -128.14 234.2
-1.13 -119.02 217.6
-0.56 -118.54 216.7
0.00 -117.10 214.1
0.47 -99.82 182.5
1.50 -79.18 144.8
2.66 -70.06 128.1
3.15 -73.89 135.1
3.71 -78.21 143.0
4.15 -79.64 145.6
4.31 -75.80 138.6
10.49 -79.03 144.5
11.98 -87.16 159.3
13.07 -91.93 168.1
14.07 -95.75 175.0
14.08 -92.86 169.7
14.73 -91.39 167.1
16.27 -98.07 179.3
17.46 -102.36 187.1
23.85 -132.44 242.1
33.93 -183.57 335.6
43.76 -230.85 422.0
56.83 -292.44 534.6
60.86 -305.76 558.9
52.37 -256.97 469.8
73.69 -353.38 646.0
-10.62 -204.65 372.3
-8.54 -181.06 329.4
-6.21 -146.40 266.4
-4.83 -128.10 233.1
-4.07 -123.29 224.3
-3.31 -117.03 212.9
-2.75 -116.56 212.1
-2.52 -133.42 242.7
-2.03 -143.53 261.1
-1.29 -136.31 248.0
-0.54 -114.64 208.6
0.00 -92.96 169.1
0.41 -87.18 158.6
0.85 -89.59 163.0
1.64 -87.18 158.6
1.97 -83.32 151.6
2.76 -73.20 133.2
3.25 -76.57 139.3
3.79 -80.42 146.3
4.15 -79.93 145.4
4.22 -74.63 135.8
4.46 -72.70 132.3
5.42 -76.54 139.3
5.81 -77.02 140.1
6.29 -78.45 142.7
10.67 -80.76 146.9
12.23 -89.40 162.6
13.40 -94.67 172.2
14.82 -101.38 184.5
15.59 -103.29 187.9
18.75 -110.42 200.9
23.74 -132.45 241.0
32.66 -177.52 323.0
43.35 -229.77 418.1
51.48 -266.17 484.3
53.87 -265.58 483.2
-22.53 -369.17 668.5
-13.99 -248.38 449.8
-10.46 -202.49 366.7
-7.35 -156.59 283.6
-4.03 -122.77 222.3
-3.49 -123.74 224.1
-3.02 -128.58 232.8
-2.50 -132.93 240.7
-1.87 -132.45 239.9
-1.19 -127.14 230.2
-0.51 -107.80 195.2
0.00 -89.43 161.9
0.41 -87.01 157.6
1.05 -111.67 202.2
1.76 -125.20 226.7
1.87 -99.58 180.3
2.11 -74.92 135.7
2.54 -77.34 140.0
2.80 -74.43 134.8
3.04 -72.01 130.4
3.52 -74.91 135.7
3.79 -73.46 133.0
4.54 -74.41 134.8
5.24 -74.40 134.7
5.88 -78.26 141.7
6.71 -84.05 152.2
7.10 -84.04 152.2
11.29 -85.87 155.5
11.76 -86.34 156.4
12.77 -90.67 164.2
13.97 -95.96 173.8
15.50 -103.18 186.8
14.86 -95.93 173.7
15.31 -95.91 173.7
19.16 -116.62 211.2
20.77 -122.86 222.5
20.17 -116.09 210.2
58.65 -304.68 551.7
62.82 -318.57 576.9
-18.52 -330.26 595.3
-12.07 -234.74 423.1
-7.80 -166.85 300.7
-5.59 -132.90 239.5
-4.99 -133.39 240.4
-4.63 -141.65 255.3
-4.03 -143.59 258.8
-3.04 -130.01 234.3
-2.20 -117.89 212.5
-1.63 -115.95 209.0
-1.02 -109.64 197.6
-0.46 -98.97 178.4
0.41 -88.78 160.0
1.07 -114.49 206.4
1.75 -125.17 225.6
1.81 -97.03 174.9
1.94 -82.95 149.5
2.39 -85.38 153.9
2.70 -82.46 148.6
2.81 -75.19 135.5
2.84 -67.42 121.5
4.16 -74.20 133.7
4.57 -75.17 135.5
4.76 -72.74 131.1
4.89 -69.82 125.8
5.33 -71.27 128.5
6.16 -77.57 139.8
6.61 -78.53 141.5
6.76 -76.10 137.2
7.20 -77.06 138.9
7.70 -78.51 141.5
8.37 -81.40 146.7
9.27 -86.24 155.4
9.62 -85.74 154.5
9.77 -80.40 144.9
11.36 -90.07 162.3
11.97 -91.51 164.9
11.87 -87.62 157.9
12.01 -85.67 154.4
18.19 -111.23 200.5
19.69 -117.02 210.9
19.81 -114.58 206.5
35.13 -187.95 338.8
53.03 -276.80 498.9
63.13 -321.65 579.7
-22.01 -364.03 653.1
-15.43 -276.44 495.9
-10.33 -201.99 362.4
-8.22 -176.69 317.0
-7.05 -168.42 302.2
-6.10 -164.05 294.3
-5.52 -169.41 303.9
-4.44 -159.19 285.6
-2.30 -123.66 221.9
-1.70 -121.72 218.4
-1.05 -112.95 202.6
-0.47 -100.78 180.8
2.46 -88.12 158.1
2.90 -89.09 159.8
2.93 -78.86 141.5
3.54 -69.12 124.0
4.16 -74.46 133.6
4.59 -75.92 136.2
4.94 -75.91 136.2
5.26 -75.42 135.3
5.62 -71.03 127.4
6.52 -77.84 139.6
7.05 -79.77 143.1
7.28 -78.31 140.5
7.51 -76.84 137.9
7.91 -77.32 138.7
8.58 -80.23 143.9
8.95 -80.22 143.9
9.95 -79.21 142.1
11.26 -86.49 155.2
11.80 -87.45 156.9
11.66 -83.55 149.9
22.46 -130.51 234.1
24.86 -140.67 252.4
34.37 -184.74 331.4
44.93 -235.61 422.7
58.99 -301.96 541.7
-21.02 -349.20 623.6
-14.19 -255.45 456.2
-9.70 -190.50 340.2
-7.78 -168.04 300.1
-7.14 -171.46 306.2
-6.51 -175.87 314.1
-5.26 -162.20 289.6
-2.35 -127.03 226.8
-1.64 -118.24 211.1
-0.95 -102.12 182.4
-0.48 -104.56 186.7
0.00 -115.31 205.9
1.37 -98.70 176.2
1.78 -96.25 171.9
2.51 -90.38 161.4
2.94 -90.87 162.3
2.93 -79.14 141.3
3.01 -64.97 116.0
3.73 -73.27 130.8
4.61 -83.03 148.3
4.91 -81.56 145.6
5.10 -78.63 140.4
5.76 -83.01 148.2
6.04 -81.54 145.6
5.69 -72.26 129.0
6.57 -74.69 133.4
7.01 -75.66 135.1
7.45 -76.62 136.8
8.05 -79.06 141.2
8.00 -75.14 134.2
7.48 -67.33 120.2
8.07 -69.76 124.6
9.34 -77.55 138.5
9.69 -77.54 138.5
11.32 -84.35 150.6
12.46 -89.70 160.2
15.23 -102.83 183.6
17.05 -111.58 199.2
17.87 -113.51 202.7
23.02 -134.38 240.0
25.95 -147.50 263.4
29.44 -163.05 291.2
36.41 -196.59 351.1
47.74 -251.53 449.2
62.61 -322.01 575.0
-21.99 -367.09 652.5
-15.29 -276.44 491.4
-10.63 -209.79 372.9
-8.13 -176.47 313.7
-7.06 -170.11 302.4
-6.16 -167.17 297.1
-4.71 -146.10 259.7
-3.52 -127.47 226.6
-2.93 -126.99 225.7
-2.40 -130.42 231.8
-1.69 -122.09 217.0
-0.99 -106.89 190.0
-0.51 -110.81 197.0
0.00 -115.72 205.7
0.49 -105.42 187.4
1.40 -101.00 179.5
1.97 -106.89 190.0
2.37 -102.96 183.0
2.74 -99.04 176.0
3.04 -94.13 167.3
3.14 -85.30 151.6
3.19 -76.96 136.8
3.41 -74.02 131.6
4.20 -82.84 147.2
5.31 -96.07 170.8
5.75 -96.06 170.7
5.50 -85.27 151.6
5.69 -82.33 146.3
6.36 -86.24 153.3
6.26 -79.86 142.0
7.45 -80.82 143.7
8.53 -88.16 156.7
8.44 -83.25 148.0
7.63 -71.98 127.9
7.80 -70.50 125.3
9.02 -78.33 139.2
10.20 -85.17 151.4
10.47 -84.18 149.6
15.09 -105.65 187.8
16.66 -112.97 200.8
17.55 -115.40 205.1
18.84 -120.26 213.8
20.34 -126.11 224.2
21.32 -128.53 228.5
23.66 -138.77 246.7
26.95 -153.89 273.5
30.81 -171.44 304.7
36.82 -199.73 355.0
45.20 -239.23 425.2
56.78 -293.37 521.5
-21.85 -366.41 648.3
-15.41 -279.87 495.2
-11.19 -221.84 392.5
-8.78 -191.35 338.6
-6.95 -168.24 297.7
-5.52 -150.54 266.4
-4.68 -145.62 257.7
-3.94 -143.17 253.3
-3.32 -144.65 255.9
-2.74 -149.08 263.8
-1.86 -135.31 239.4
0.45 -98.41 174.1
1.38 -100.37 177.6
1.92 -104.80 185.4
2.40 -104.80 185.4
2.82 -102.33 181.1
3.16 -98.39 174.1
3.29 -89.54 158.4
3.53 -85.60 151.4
3.97 -86.58 153.2
4.49 -89.03 157.5
5.28 -95.91 169.7
5.66 -94.92 167.9
5.24 -81.64 144.4
5.48 -79.66 141.0
6.28 -85.56 151.4
6.33 -81.13 143.5
6.81 -78.16 138.3
8.39 -91.43 161.8
9.23 -95.84 169.6
8.73 -86.49 153.0
8.19 -77.64 137.4
8.71 -79.10 140.0
9.41 -82.04 145.2
10.02 -83.99 148.6
10.58 -85.46 151.2
10.97 -85.44 151.2
15.15 -106.51 188.5
16.78 -114.35 202.3
18.35 -121.20 214.4
20.43 -130.99 231.8
22.76 -141.76 250.8
24.54 -148.60 262.9
25.80 -152.00 268.9
27.43 -157.37 278.4
31.22 -174.49 308.7
36.78 -200.43 354.6
44.05 -234.19 414.4
-20.27 -341.52 601.5
-15.14 -276.40 486.8
-11.63 -231.49 407.7
-8.54 -187.08 329.5
-5.25 -143.66 253.0
-4.77 -149.09 262.6
-4.19 -153.05 269.6
-3.65 -159.96 281.7
-2.83 -155.03 273.0
0.00 -105.17 185.2
0.46 -100.72 177.4
1.00 -109.12 192.2
1.59 -116.03 204.4
2.13 -116.52 205.2
2.55 -111.58 196.5
2.88 -105.16 185.2
3.12 -97.75 172.2
3.32 -90.83 160.0
3.63 -88.36 155.6
4.06 -88.85 156.5
4.61 -91.81 161.7
5.00 -91.31 160.8
4.89 -82.42 145.2
4.70 -73.53 129.5
5.24 -76.49 134.7
6.13 -83.88 147.7
6.28 -80.91 142.5
7.70 -88.79 156.4
8.69 -95.20 167.7
8.84 -92.23 162.4
8.97 -81.84 144.1
9.62 -84.30 148.5
9.83 -82.81 145.8
9.84 -79.84 140.6
11.15 -87.22 153.6
13.44 -101.49 178.8
14.85 -108.38 190.9
16.24 -114.76 202.1
17.70 -121.15 213.4
18.92 -125.56 221.1
20.56 -132.43 233.2
22.26 -139.30 245.3
25.89 -157.48 277.4
29.10 -172.21 303.3
30.56 -176.12 310.2
33.90 -190.34 335.2
37.00 -202.60 356.8
-20.48 -346.66 607.8
-14.26 -261.50 458.5
-11.44 -228.83 401.2
-8.65 -190.20 333.5
-3.80 -139.21 244.1
-3.33 -146.64 257.1
-2.57 -141.20 247.6
-1.23 -135.26 237.1
-0.64 -141.20 247.6
0.00 -137.73 241.5
0.55 -120.89 211.9
1.08 -118.41 207.6
1.80 -132.28 231.9
2.51 -138.22 242.3
2.62 -115.43 202.4
3.11 -97.59 171.1
3.66 -100.56 176.3
3.38 -82.72 145.0
4.06 -81.23 142.4
4.73 -86.67 152.0
4.83 -81.71 143.3
4.92 -77.25 135.4
4.93 -72.29 126.7
6.16 -79.71 139.7
7.09 -86.63 151.9
7.65 -88.60 155.3
7.87 -86.62 151.9
8.50 -89.08 156.2
8.76 -87.59 153.6
9.39 -86.08 150.9
9.89 -87.06 152.6
9.82 -83.09 145.7
10.32 -84.07 147.4
14.27 -108.27 189.8
14.90 -109.24 191.5
17.06 -121.09 212.3
19.34 -132.93 233.1
19.64 -130.93 229.6
20.16 -130.42 228.7
22.00 -138.30 242.5
25.78 -157.53 276.2
30.47 -181.20 317.7
33.51 -194.00 340.1
35.08 -197.91 347.0
35.98 -197.87 346.9
-22.22 -377.67 659.1
-14.36 -264.38 461.4
-10.32 -207.24 361.7
-9.27 -204.77 357.4
-8.44 -207.27 361.7
-7.16 -197.83 345.3
-5.61 -176.96 308.9
-4.21 -155.09 270.7
-3.50 -154.60 269.8
-2.65 -146.65 256.0
-1.19 -131.24 229.1
-0.59 -130.75 228.2
0.00 -135.72 236.9
0.57 -125.78 219.5
1.04 -115.34 201.3
1.67 -122.79 214.3
2.49 -137.70 240.3
2.71 -119.80 209.1
2.62 -96.44 168.3
3.27 -103.39 180.5
3.81 -105.38 183.9
4.60 -92.44 161.3
5.26 -96.91 169.1
5.26 -89.45 156.1
5.92 -93.42 163.0
6.47 -95.40 166.5
5.96 -77.50 135.3
6.76 -82.95 144.8
7.05 -81.95 143.0
7.73 -85.42 149.1
8.82 -92.86 162.1
9.00 -90.37 157.7
8.84 -84.90 148.2
9.43 -86.87 151.6
9.83 -86.86 151.6
9.87 -83.87 146.4
20.89 -144.30 251.8
24.21 -162.12 282.9
22.27 -144.74 252.6
21.19 -133.81 233.5
39.40 -212.37 370.7
-21.31 -363.99 632.4
-14.61 -270.27 469.6
-10.95 -220.92 383.8
-10.15 -225.42 391.6
-8.51 -209.97 364.8
-6.63 -184.04 319.8
-5.77 -183.05 318.0
-4.87 -180.06 312.8
-3.92 -174.08 302.5
-2.86 -158.62 275.6
-2.05 -151.64 263.5
-1.37 -151.64 263.5
-0.60 -132.19 229.7
0.00 -119.22 207.1
0.56 -124.71 216.7
1.15 -127.70 221.9
1.68 -124.21 215.8
2.30 -127.70 221.9
2.89 -128.19 222.7
3.26 -120.71 209.7
3.87 -122.70 213.2
4.31 -119.70 208.0
4.43 -109.22 189.8
5.08 -112.71 195.8
5.93 -119.68 207.9
6.17 -114.19 198.4
6.07 -103.71 180.2
6.70 -106.20 184.5
7.75 -114.67 199.2
7.37 -102.19 177.6
6.60 -86.24 149.8
6.79 -83.74 145.5
7.25 -84.72 147.2
8.13 -90.20 156.7
9.14 -96.67 168.0
9.23 -93.17 161.9
9.29 -89.67 155.8
10.23 -94.64 164.4
20.51 -142.30 247.2
25.36 -170.63 296.5
24.83 -162.15 281.7
22.58 -143.22 248.8
39.39 -218.61 379.8
42.11 -228.00 396.1
48.48 -256.26 445.2
-16.40 -304.70 527.0
-10.46 -233.18 403.3
-8.52 -211.18 365.3
-5.64 -179.66 310.8
-2.24 -166.67 288.3
-1.54 -171.68 296.9
-0.70 -156.16 270.1
0.00 -140.65 243.3
0.64 -143.15 247.6
1.26 -140.64 243.3
1.76 -130.63 225.9
2.35 -131.13 226.8
2.88 -128.63 222.5
3.23 -120.11 207.8
3.80 -121.11 209.5
4.69 -130.61 225.9
5.25 -130.11 225.0
5.18 -115.59 199.9
5.23 -106.08 183.5
5.90 -109.57 189.5
6.15 -105.56 182.6
7.94 -118.06 204.2
7.90 -110.04 190.3
7.40 -97.03 167.8
7.23 -89.52 154.8
7.33 -86.01 148.8
8.12 -90.50 156.5
9.09 -96.49 166.9
10.31 -104.48 180.7
11.70 -113.47 196.3
11.78 -109.45 189.3
17.53 -130.34 225.4
21.59 -155.29 268.6
22.57 -157.26 272.0
23.64 -159.73 276.3
25.19 -165.19 285.7
25.37 -161.67 279.6
28.35 -175.61 303.7
32.94 -198.52 343.4
33.57 -196.99 340.7
35.75 -204.43 353.6
40.42 -225.33 389.7
64.36 -333.80 577.4
-18.34 -342.37 589.5
-6.50 -207.88 358.0
-5.31 -198.35 341.5
-4.48 -200.87 345.9
-3.66 -204.89 352.8
-2.54 -189.83 326.9
-1.59 -178.28 307.0
-0.78 -174.76 300.9
0.00 -171.75 295.7
0.68 -153.17 263.7
1.16 -130.07 224.0
1.64 -122.53 211.0
2.28 -127.55 219.6
2.96 -132.57 228.3
3.50 -130.56 224.8
3.41 -108.96 187.6
4.78 -119.00 204.9
5.38 -120.50 207.5
5.74 -116.98 201.4
6.88 -128.52 221.3
6.85 -117.97 203.1
7.28 -116.45 200.5
8.40 -125.48 216.1
8.07 -112.92 194.4
7.77 -102.37 176.3
8.38 -98.84 170.2
9.63 -107.86 185.7
10.21 -108.86 187.4
11.18 -113.86 196.1
12.20 -118.86 204.7
14.60 -116.78 201.1
15.31 -118.27 203.7
18.66 -139.30 239.9
22.12 -159.82 275.2
21.83 -152.78 263.1
33.06 -205.73 354.3
36.13 -218.71 376.6
34.55 -203.66 350.7
32.75 -188.11 323.9
46.40 -247.49 426.2
62.18 -323.92 557.8
-19.50 -365.68 626.9
-15.12 -309.28 530.2
-12.36 -278.07 476.7
-10.38 -259.44 444.8
-5.98 -224.20 384.3
-5.14 -231.26 396.4
-3.85 -216.66 371.4
-2.43 -181.89 311.8
-1.54 -172.83 296.3
-0.77 -172.83 296.3
0.00 -164.26 281.6
0.62 -139.57 239.3
1.12 -125.46 215.1
1.71 -128.48 220.3
2.27 -127.47 218.5
2.84 -127.98 219.4
3.13 -117.39 201.2
2.70 -86.66 148.6
4.96 -123.93 212.4
5.82 -130.97 224.5
6.45 -131.97 226.2
7.74 -145.06 248.7
7.54 -130.45 223.6
7.91 -111.28 190.8
8.48 -112.28 192.5
9.55 -119.32 204.5
11.18 -132.40 227.0
11.63 -130.88 224.4
11.32 -121.30 207.9
11.96 -122.29 209.6
12.65 -123.79 212.2
12.77 -119.75 205.3
13.86 -124.76 213.9
14.88 -128.77 220.8
15.51 -129.26 221.6
16.71 -134.27 230.2
17.76 -137.77 236.2
18.30 -137.25 235.3
23.44 -159.80 273.9
31.18 -194.87 334.1
31.54 -191.82 328.8
50.19 -268.89 461.0
66.52 -348.08 596.7
-15.92 -326.98 558.1
-12.64 -285.56 487.4
-10.63 -266.87 455.5
-6.07 -228.48 390.0
-5.46 -246.69 421.0
-4.29 -242.65 414.1
-2.60 -196.14 334.8
-1.57 -176.94 302.0
-0.69 -155.71 265.7
0.00 -126.38 215.7
1.52 -114.75 195.9
2.38 -134.47 229.5
2.82 -127.39 217.4
2.94 -110.70 188.9
3.02 -97.56 166.5
4.20 -118.78 202.7
5.98 -150.11 256.2
6.75 -152.63 260.5
6.35 -130.39 222.5
6.33 -119.26 203.5
8.75 -152.10 259.6
10.86 -175.34 299.2
9.62 -145.01 247.5
8.55 -120.75 206.1
9.27 -123.26 210.4
10.70 -134.36 229.3
12.57 -149.50 255.2
12.92 -145.95 249.1
12.01 -129.28 220.6
12.39 -127.24 217.2
13.77 -135.31 230.9
14.64 -137.81 235.2
14.96 -135.27 230.9
16.58 -138.77 236.8
19.00 -153.38 261.8
19.03 -148.32 253.1
24.70 -174.47 297.8
27.31 -187.05 319.2
26.69 -177.44 302.8
27.16 -175.39 299.3
29.46 -184.93 315.6
31.10 -189.94 324.2
-5.47 -248.51 422.3
-4.53 -257.14 436.9
-2.93 -221.64 376.6
-1.64 -186.65 317.1
1.90 -143.53 243.9
2.77 -157.23 267.2
3.18 -144.54 245.6
3.62 -136.93 232.7
4.10 -132.87 225.8
5.08 -144.02 244.7
6.67 -168.36 286.1
7.35 -166.83 283.5
6.56 -135.38 230.0
6.62 -125.23 212.8
9.61 -167.81 285.1
12.48 -202.27 343.7
11.36 -171.84 292.0
9.72 -137.87 234.3
10.29 -137.35 233.4
12.14 -153.05 260.1
14.46 -172.80 293.6
14.33 -162.65 276.4
12.80 -138.31 235.0
12.47 -128.67 218.6
13.50 -133.22 226.4
13.33 -126.11 214.3
19.04 -154.39 262.3
23.63 -173.05 294.0
27.89 -197.81 336.1
30.44 -209.41 355.8
30.30 -202.30 343.7
31.11 -201.76 342.8
33.92 -213.86 363.4
36.09 -221.40 376.2
36.80 -219.84 373.6
43.44 -246.53 418.9
51.27 -283.86 482.3
54.85 -296.42 503.7
-5.20 -237.11 401.1
-3.87 -220.33 372.7
-2.68 -204.05 345.2
1.59 -181.66 307.3
2.45 -186.24 315.1
2.92 -166.39 281.5
3.29 -150.10 253.9
3.62 -137.38 232.4
4.19 -136.36 230.7
5.34 -152.12 257.4
6.83 -172.98 292.6
7.16 -163.30 276.3
7.58 -157.19 265.9
9.48 -180.07 304.6
9.89 -173.45 293.4
9.90 -161.23 272.8
12.58 -191.22 323.5
14.77 -210.53 356.2
13.95 -187.13 316.6
14.53 -184.06 311.4
16.57 -198.78 336.3
15.70 -178.94 302.7
14.37 -156.05 264.0
14.61 -151.46 256.2
14.87 -147.37 249.3
13.75 -130.59 220.9
25.81 -189.86 321.2
29.35 -209.12 353.8
32.10 -221.77 375.2
31.70 -212.60 359.7
32.16 -209.52 354.5
34.68 -219.63 371.6
40.00 -246.47 417.0
43.77 -262.65 444.3
44.57 -260.57 440.8
51.31 -292.45 494.7
57.86 -321.78 544.4
60.20 -326.78 552.8
-7.02 -267.99 451.4
-5.46 -250.13 421.3
-4.12 -235.85 397.2
0.70 -159.79 269.1
1.68 -191.95 323.3
2.58 -197.05 331.9
3.02 -173.06 291.5
3.32 -152.12 256.2
3.92 -128.12 215.8
5.05 -144.45 243.3
6.54 -166.39 280.3
7.60 -174.04 293.1
9.10 -189.34 318.9
11.07 -211.28 355.9
11.59 -204.12 343.8
11.04 -180.63 304.2
13.17 -201.03 338.6
16.61 -237.75 400.4
16.70 -224.97 378.9
15.32 -194.86 328.2
15.57 -187.70 316.1
16.79 -192.27 323.9
17.21 -187.66 316.1
16.66 -173.36 292.0
16.13 -160.60 270.5
22.05 -187.02 315.0
22.30 -182.41 307.2
26.61 -196.59 331.1
28.89 -206.74 348.2
30.01 -208.24 350.7
31.06 -209.22 352.4
43.08 -266.60 449.0
48.79 -294.02 495.2
51.80 -304.14 512.3
55.78 -319.33 537.9
58.89 -328.93 554.0
65.72 -358.34 603.6
-10.64 -349.76 586.6
-8.43 -323.14 541.9
-6.80 -312.91 524.8
-5.31 -305.23 511.9
-3.44 -263.75 442.3
-1.96 -225.86 378.8
0.72 -164.91 276.6
1.63 -186.93 313.5
2.52 -193.08 323.8
2.93 -168.49 282.6
3.34 -153.64 257.7
3.70 -141.85 237.9
4.50 -147.99 248.2
6.20 -178.20 298.8
7.69 -196.63 329.7
8.66 -199.18 334.0
8.79 -183.81 308.3
11.72 -207.34 347.7
13.55 -222.68 373.4
13.89 -212.94 357.1
15.42 -221.62 371.7
17.40 -235.42 394.8
17.94 -229.26 384.5
18.47 -223.61 375.0
19.75 -227.17 381.0
20.51 -224.59 376.6
20.45 -213.82 358.6
19.44 -194.36 326.0
18.14 -173.88 291.6
24.73 -210.63 353.2
25.64 -210.60 353.2
25.91 -205.46 344.6
26.93 -206.45 346.2
32.83 -228.83 383.7
48.90 -295.99 496.4
52.52 -309.71 519.4
57.31 -329.55 552.7
-10.40 -343.17 573.0
-8.63 -332.40 555.0
-7.33 -338.57 565.3
-5.53 -319.57 533.6
-3.35 -257.92 430.7
-2.08 -240.45 401.5
-1.03 -237.89 397.2
0.00 -217.85 363.8
0.91 -210.14 350.9
1.90 -218.87 365.5
2.75 -211.68 353.5
3.28 -189.58 316.6
3.87 -178.79 298.5
4.24 -163.37 272.8
5.06 -166.96 278.8
6.44 -185.96 310.5
7.49 -192.12 320.8
8.94 -206.49 344.8
9.64 -202.37 337.9
9.42 -181.30 302.7
11.76 -209.03 349.0
12.57 -207.47 346.4
17.23 -234.12 390.9
18.80 -241.29 402.9
20.31 -246.91 412.3
20.40 -235.60 393.4
19.97 -219.66 366.8
21.41 -224.77 375.3
21.97 -220.64 368.4
20.36 -195.99 327.3
27.16 -224.09 374.2
30.32 -241.50 403.2
29.76 -229.16 382.6
37.85 -264.92 442.4
47.01 -301.66 503.7
52.57 -328.23 548.1
52.55 -319.47 533.4
53.06 -314.29 524.8
-2.14 -248.43 413.0
-1.09 -253.59 421.6
0.00 -239.67 398.5
0.97 -225.76 375.3
1.97 -228.85 380.5
3.05 -235.55 391.6
3.88 -225.23 374.5
5.15 -239.14 397.6
6.40 -247.38 411.3
5.83 -193.26 321.3
8.02 -206.65 343.6
11.73 -272.08 452.3
13.71 -289.07 480.6
15.00 -290.08 482.3
15.13 -269.97 448.8
13.59 -225.13 374.3
14.00 -202.95 337.4
16.87 -230.23 382.8
18.26 -235.36 391.3
20.07 -245.13 407.5
20.37 -236.35 392.9
19.85 -219.33 364.7
21.33 -224.97 374.0
23.73 -239.36 398.0
23.96 -231.61 385.1
25.32 -225.90 375.6
26.29 -225.87 375.5
28.75 -238.18 396.0
32.98 -263.87 438.7
40.28 -292.03 485.5
42.19 -296.61 493.1
48.95 -315.47 524.5
54.23 -340.07 565.4
-2.78 -216.13 357.8
-2.31 -269.38 445.9
-1.25 -292.14 483.6
0.00 -257.49 426.3
0.97 -225.95 374.0
1.84 -214.06 354.4
2.67 -207.34 343.2
3.76 -219.22 362.9
5.49 -255.93 423.7
7.23 -280.74 464.7
7.22 -240.40 398.0
5.72 -166.47 275.6
7.43 -192.31 318.4
11.83 -275.52 456.1
14.28 -302.39 500.6
15.33 -297.72 492.9
15.20 -272.38 450.9
15.90 -264.61 438.0
16.83 -261.49 432.9
16.93 -246.48 408.0
17.87 -244.91 405.4
19.56 -253.16 419.1
21.65 -265.53 439.6
23.32 -271.70 449.8
24.07 -267.03 442.0
23.55 -249.44 412.9
24.06 -243.73 403.5
25.48 -247.32 409.4
26.20 -244.19 404.2
28.63 -256.55 424.7
30.26 -261.16 432.3
30.51 -253.90 420.3
38.91 -292.48 484.2
41.30 -300.69 497.8
51.60 -333.99 552.9
-7.60 -355.79 586.5
-5.12 -299.27 493.3
-3.07 -239.11 394.1
-2.15 -251.56 414.7
-1.23 -287.87 474.5
0.00 -262.45 432.6
0.93 -217.85 359.1
1.66 -194.50 320.6
2.27 -177.38 292.4
3.11 -182.05 300.1
4.72 -220.94 364.2
6.37 -248.43 409.5
7.60 -254.12 418.9
7.80 -228.18 376.1
7.20 -187.21 308.6
8.89 -207.94 342.8
12.63 -268.60 442.7
14.86 -289.84 477.8
14.57 -262.34 432.4
15.01 -250.92 413.6
17.58 -274.23 452.0
19.39 -283.54 467.4
20.15 -277.30 457.1
21.65 -281.42 463.9
24.66 -303.68 500.6
26.97 -315.57 520.2
27.48 -306.21 504.7
26.74 -284.42 468.8
24.85 -252.79 416.7
23.53 -229.45 378.2
34.29 -297.19 489.9
35.06 -293.01 483.0
36.24 -292.45 482.1
38.02 -296.55 488.8
38.25 -288.74 475.9
-4.62 -362.12 594.4
-2.63 -309.57 508.1
-1.21 -284.60 467.1
0.00 -242.46 398.0
1.63 -191.47 314.3
2.64 -206.55 339.0
3.07 -180.54 296.3
4.12 -193.54 317.7
5.74 -224.75 368.9
6.90 -231.50 380.0
9.26 -272.07 446.6
11.46 -299.11 490.9
11.00 -258.52 424.3
12.10 -258.51 424.3
14.40 -281.90 462.7
18.82 -294.85 483.9
20.04 -294.30 483.1
20.01 -276.60 454.0
21.58 -281.78 462.5
24.59 -304.11 499.1
26.59 -312.39 512.7
26.52 -296.77 487.1
26.08 -278.55 457.2
24.51 -250.46 411.1
27.70 -271.21 445.2
35.70 -335.60 550.8
38.73 -350.10 574.6
38.49 -334.99 549.8
38.49 -323.01 530.2
38.83 -314.65 516.5
41.62 -326.03 535.1
-6.15 -362.71 592.8
-4.55 -358.02 585.1
-2.84 -335.06 547.6
-1.27 -299.58 489.6
0.00 -247.39 404.3
0.83 -195.19 319.0
1.86 -219.72 359.1
3.17 -249.47 407.7
3.99 -235.37 384.7
4.65 -219.71 359.1
5.72 -224.92 367.6
7.63 -257.27 420.5
10.83 -319.36 522.0
12.74 -333.96 545.8
12.03 -283.85 463.9
11.33 -243.14 397.4
17.36 -292.65 478.3
19.76 -310.89 508.1
19.80 -292.09 477.4
20.70 -287.37 469.7
23.19 -304.03 496.9
24.89 -309.22 505.4
25.54 -301.37 492.6
26.63 -299.25 489.1
27.31 -292.97 478.8
28.24 -289.81 473.7
33.81 -332.51 543.4
37.48 -353.84 578.3
36.11 -327.74 535.7
