ply
format ascii 1.0
element vertex 2412
property float x
property float y
property float z
end_header
-51.78 -316.24 713.3
79.08 -314.50 709.4
73.33 -284.99 642.8
66.28 -251.88 568.1
69.04 -256.65 578.9
70.08 -254.97 575.1
61.04 -217.45 490.5
52.03 -181.57 409.5
49.05 -161.30 363.8
52.47 -169.30 381.9
51.54 -163.22 368.2
49.77 -154.73 349.0
49.47 -151.06 340.7
51.14 -153.43 346.1
47.80 -140.93 317.9
73.94 -197.55 445.6
-65.74 -314.09 704.3
-62.36 -306.44 687.2
-60.59 -306.50 687.3
-56.87 -296.40 664.7
-51.98 -279.40 626.6
-48.39 -268.48 602.1
-45.92 -263.25 590.3
-44.87 -266.13 596.8
-47.17 -289.75 649.8
-51.62 -328.81 737.4
80.85 -331.10 742.5
77.08 -308.34 691.5
68.08 -266.13 596.8
61.66 -235.70 528.6
65.51 -244.95 549.3
69.68 -255.00 571.9
64.60 -231.47 519.1
56.82 -199.45 447.3
50.91 -175.12 392.7
45.68 -154.05 345.5
46.93 -155.22 348.1
48.69 -158.00 354.3
46.42 -147.86 331.6
46.88 -146.60 328.8
48.50 -148.98 334.1
49.76 -150.14 336.7
45.85 -135.97 304.9
84.58 -223.81 501.9
97.43 -253.90 569.4
110.62 -283.98 636.8
-71.36 -324.85 724.3
-68.36 -319.62 712.6
-64.57 -310.31 691.9
-60.40 -298.54 665.6
-56.36 -286.77 639.4
-50.28 -263.57 587.6
-47.18 -255.05 568.6
-45.56 -254.27 566.9
-45.73 -263.71 587.9
-47.09 -280.90 626.3
-45.14 -278.90 621.8
-46.02 -294.87 657.4
-48.44 -322.28 718.5
-46.87 -324.37 723.2
-44.44 -320.33 714.2
-43.41 -326.50 728.0
-41.99 -330.22 736.2
-39.74 -327.40 730.0
-39.22 -339.29 756.5
83.31 -351.52 783.7
79.88 -329.05 733.6
78.33 -315.13 702.6
69.47 -273.12 608.9
61.08 -234.81 523.5
59.71 -224.57 500.7
58.79 -216.38 482.4
59.23 -213.48 476.0
56.76 -200.41 446.8
51.80 -179.23 399.6
47.43 -160.89 358.7
44.44 -147.85 329.6
46.88 -150.20 334.9
53.16 -167.20 372.8
49.25 -152.14 339.2
44.90 -136.27 303.8
60.70 -172.14 383.8
68.20 -190.31 424.3
72.08 -197.93 441.3
91.47 -239.77 534.6
110.36 -284.96 635.3
123.56 -314.35 700.9
-69.68 -319.05 707.2
-63.94 -300.68 666.5
-54.51 -263.45 584.0
-54.74 -272.11 603.2
-54.78 -280.36 621.5
-48.05 -253.36 561.6
-43.81 -238.23 528.1
-43.62 -244.83 542.7
-45.05 -261.28 579.2
-46.15 -276.92 613.9
-44.17 -274.50 608.5
-43.62 -281.10 623.1
-45.02 -301.26 667.8
-44.76 -311.56 690.7
-42.98 -311.61 690.8
-41.19 -311.65 690.8
-39.15 -309.63 686.4
-37.08 -307.20 681.0
-36.73 -319.56 708.4
-37.46 -343.01 760.4
84.79 -368.85 817.7
82.26 -349.12 773.9
79.51 -329.40 730.2
75.32 -304.78 675.6
61.95 -244.99 543.1
58.37 -225.71 500.3
61.06 -230.97 512.0
56.63 -209.66 464.8
53.20 -192.85 427.5
52.11 -185.04 410.2
48.82 -169.88 376.6
44.03 -150.24 333.0
42.63 -139.95 310.2
50.00 -161.12 357.2
54.65 -172.90 383.3
49.46 -153.68 340.7
47.13 -143.86 318.9
48.48 -145.44 322.4
62.50 -178.27 395.2
68.14 -191.23 423.9
72.01 -198.89 440.9
-73.44 -329.55 726.4
-67.55 -311.11 685.7
-58.05 -274.54 605.1
-49.53 -254.93 561.9
-46.22 -245.09 540.2
-41.36 -226.18 498.5
-40.37 -227.87 502.2
-40.77 -237.80 524.1
-40.98 -247.32 545.1
-38.06 -237.88 524.3
-36.45 -236.27 520.7
-39.15 -263.52 580.8
-39.77 -278.40 613.6
-38.24 -278.85 614.6
-36.82 -280.13 617.4
-36.00 -286.35 631.1
-34.66 -288.86 636.7
-33.21 -290.55 640.4
-34.06 -313.69 691.4
84.26 -378.10 833.4
83.58 -365.68 806.0
79.58 -339.69 748.7
71.34 -297.26 655.2
56.26 -228.96 504.6
49.49 -196.85 433.9
52.51 -204.20 450.1
56.14 -213.59 470.8
52.83 -196.70 433.5
49.32 -179.82 396.3
47.81 -170.74 376.3
43.85 -153.46 338.2
42.96 -141.85 312.6
46.03 -149.19 328.8
46.53 -145.41 320.5
48.95 -150.28 331.2
50.47 -152.28 335.6
56.24 -164.04 361.6
62.58 -179.53 395.7
65.18 -183.96 405.5
104.68 -273.42 602.6
-70.53 -318.30 697.6
-66.06 -305.96 670.5
-60.68 -288.66 632.6
-53.98 -263.90 578.3
-48.38 -243.26 533.1
-47.08 -243.72 534.1
-44.70 -238.39 522.4
-40.94 -225.19 493.5
-38.14 -216.53 474.5
-36.77 -215.74 472.8
-39.17 -237.72 521.0
-38.75 -243.56 533.8
-34.45 -224.54 492.1
-34.34 -232.45 509.4
-35.50 -249.88 547.6
-34.59 -253.65 555.9
-31.31 -239.59 525.1
-28.66 -229.25 502.4
-29.88 -250.43 548.8
-31.29 -275.34 603.4
-32.01 -296.52 649.8
-32.75 -320.19 701.7
-33.13 -343.03 751.8
79.42 -358.40 785.5
79.37 -349.23 765.4
75.08 -322.29 706.3
63.09 -264.38 579.4
49.54 -202.78 444.4
43.59 -170.49 373.6
44.87 -171.68 376.3
44.29 -165.86 363.5
43.20 -158.40 347.1
43.51 -156.29 342.5
41.58 -146.35 320.7
46.09 -144.86 317.5
47.70 -147.29 322.8
48.66 -147.65 323.6
58.15 -170.58 373.8
60.24 -173.81 380.9
73.74 -202.77 444.4
80.47 -217.88 477.5
88.45 -235.85 516.9
100.52 -264.06 578.7
114.97 -297.58 652.2
-70.74 -321.04 699.6
-64.57 -300.76 655.4
-58.45 -279.63 609.4
-55.03 -270.54 589.6
-52.44 -265.19 577.9
-49.59 -258.17 562.6
-45.58 -244.50 532.8
-38.80 -214.60 467.7
-33.37 -190.51 415.2
-32.79 -193.46 421.6
-35.72 -218.04 475.1
-38.05 -240.54 524.2
-36.64 -240.16 523.4
-33.14 -225.63 491.7
-30.93 -219.00 477.2
-31.11 -229.44 500.0
-28.90 -222.39 484.6
-25.11 -202.01 440.2
-27.07 -239.55 522.0
-28.27 -263.33 573.8
-29.32 -288.35 628.4
-30.50 -317.55 692.0
-30.74 -340.09 741.1
-29.60 -349.29 761.2
73.48 -333.50 726.8
74.23 -328.45 715.7
68.85 -297.24 647.7
58.01 -244.46 532.7
44.18 -173.78 378.7
45.04 -173.32 377.7
44.14 -166.23 362.2
41.70 -153.75 335.1
40.37 -145.84 317.8
40.84 -144.56 315.0
38.78 -134.58 293.3
35.44 -118.36 257.9
44.22 -139.76 304.6
47.66 -147.98 322.5
55.38 -169.01 368.3
64.17 -192.50 419.5
66.49 -196.16 427.5
63.45 -184.12 401.2
69.16 -194.31 423.4
77.24 -213.63 465.5
82.36 -224.27 488.7
101.52 -268.19 584.4
117.71 -306.39 667.7
-66.65 -304.18 659.1
-57.65 -270.02 585.1
-52.32 -251.71 545.4
-49.82 -246.34 533.8
-46.48 -236.36 512.2
-42.52 -222.62 482.4
-40.51 -218.49 473.4
-36.28 -201.81 437.3
-24.51 -145.46 315.2
-27.86 -170.98 370.5
-30.45 -193.58 419.5
-27.02 -200.39 434.2
-26.76 -207.11 448.8
-24.72 -200.02 433.4
-23.28 -207.18 449.0
-24.80 -232.32 503.4
-26.16 -258.72 560.6
-28.43 -297.68 645.1
-29.55 -328.69 712.3
-28.34 -336.26 728.7
-25.24 -345.53 748.7
77.60 -383.70 831.5
73.23 -352.32 763.4
69.85 -327.20 709.0
67.84 -309.61 670.9
65.81 -292.85 634.6
59.56 -258.59 560.3
40.70 -164.63 356.7
41.50 -164.17 355.8
40.59 -157.05 340.3
39.81 -150.76 326.7
37.50 -139.07 301.3
39.37 -134.76 292.0
38.63 -129.73 281.1
37.96 -125.12 271.1
40.32 -130.48 282.7
44.17 -140.41 304.3
46.41 -144.94 314.1
53.16 -163.16 353.6
64.38 -194.23 420.9
68.95 -204.54 443.2
69.93 -204.06 442.2
73.08 -209.80 454.6
98.56 -265.82 576.0
107.03 -284.35 616.2
119.18 -311.97 676.0
-63.57 -291.76 628.7
-55.45 -261.21 562.9
-51.14 -247.43 533.2
-47.41 -235.73 508.0
-37.06 -201.03 433.2
-35.19 -196.87 424.2
-29.52 -170.45 367.3
-25.12 -149.91 323.0
-27.15 -167.57 361.1
-29.37 -187.76 404.6
-26.49 -175.60 378.4
-22.26 -166.01 357.7
-21.98 -171.08 368.6
-22.68 -184.55 397.7
-23.43 -199.71 430.3
-22.55 -201.83 434.9
-22.90 -215.73 464.9
-24.40 -242.67 522.9
-26.80 -282.23 608.2
-28.65 -320.54 690.7
-27.53 -328.56 708.0
75.08 -373.31 804.4
70.82 -342.62 738.3
68.27 -321.59 693.0
67.77 -311.04 670.2
61.25 -274.09 590.6
48.85 -213.28 459.6
42.56 -177.16 381.7
38.29 -155.76 335.6
33.89 -134.79 290.5
40.66 -139.98 301.6
42.18 -142.44 306.9
39.31 -130.29 280.8
39.25 -127.75 275.3
44.13 -141.06 304.0
47.83 -150.20 323.7
63.99 -190.91 411.4
71.57 -210.01 452.5
101.84 -276.21 595.2
118.59 -312.17 672.7
-56.73 -268.73 575.9
-36.72 -200.27 429.1
-36.36 -204.52 438.3
-32.69 -189.80 406.7
-30.23 -181.39 388.7
-28.07 -174.25 373.4
-26.12 -167.95 359.9
-26.08 -173.88 372.6
-20.94 -163.84 351.1
-22.92 -187.51 401.8
-23.16 -198.51 425.4
-21.87 -196.85 421.8
-20.25 -191.80 411.0
-22.91 -257.78 552.4
-25.01 -300.06 643.0
-24.98 -321.22 688.3
72.06 -360.28 772.0
69.80 -339.57 727.6
69.18 -327.70 702.2
65.06 -300.26 643.4
47.75 -209.63 449.2
47.72 -204.53 438.3
44.43 -185.97 398.5
37.74 -154.38 330.8
33.01 -132.05 283.0
32.39 -121.44 260.2
35.57 -130.65 280.0
39.42 -133.87 286.9
39.85 -130.43 279.5
47.09 -151.36 324.3
56.68 -178.97 383.5
62.11 -192.75 413.0
55.06 -167.97 359.9
-56.50 -269.11 573.5
-29.82 -174.14 371.1
-27.95 -168.66 359.4
-26.28 -164.02 349.5
-24.13 -155.99 332.4
-22.90 -165.82 353.4
-22.16 -167.11 356.1
-22.37 -176.04 375.1
-21.76 -179.03 381.5
-19.74 -170.14 362.6
-19.54 -207.99 443.2
-20.49 -231.78 493.9
-22.02 -265.77 566.4
-23.55 -304.43 648.7
-23.12 -321.86 685.9
73.03 -377.66 804.8
69.12 -347.53 740.6
67.74 -331.38 706.2
66.54 -316.93 675.4
61.35 -284.71 606.7
54.03 -244.47 521.0
51.34 -226.65 483.0
50.62 -218.15 464.9
46.09 -194.00 413.4
39.55 -162.69 346.7
35.08 -141.10 300.7
33.17 -130.51 278.1
32.56 -125.41 267.2
34.03 -128.33 273.5
35.65 -131.67 280.6
36.01 -130.37 277.8
35.77 -126.96 270.6
42.38 -139.46 297.2
48.87 -157.95 336.6
57.42 -182.32 388.5
65.28 -203.73 434.2
61.18 -187.68 399.9
-71.81 -326.72 692.4
-62.92 -293.65 622.3
-57.77 -276.71 586.4
-55.83 -274.64 582.0
-52.32 -264.49 560.5
-44.98 -233.92 495.7
-25.71 -161.36 342.0
-26.53 -172.46 365.5
-23.69 -159.70 338.5
-20.69 -144.82 306.9
-20.36 -148.25 314.2
-19.98 -158.09 335.0
-19.52 -161.52 342.3
-18.54 -160.68 340.5
-19.11 -173.92 368.6
-19.14 -183.31 388.5
-19.31 -195.27 413.8
-20.75 -222.15 470.8
-21.78 -247.76 525.1
-21.41 -259.72 550.4
-21.13 -274.67 582.1
-20.84 -291.75 618.3
-19.11 -316.10 669.9
-18.78 -341.72 724.2
-17.43 -352.40 746.8
71.07 -369.59 783.3
70.06 -354.21 750.7
65.86 -323.95 686.6
59.64 -285.63 605.3
56.46 -263.47 558.4
52.10 -237.08 502.4
48.90 -217.06 460.0
47.53 -205.97 436.5
41.13 -174.08 368.9
32.97 -127.67 270.6
38.03 -144.18 305.6
36.07 -133.97 283.9
37.52 -133.89 283.8
39.58 -138.52 293.6
45.53 -150.67 319.3
54.94 -178.55 378.4
54.58 -174.26 369.3
-72.30 -330.75 697.1
-65.86 -309.05 651.4
-58.34 -280.94 592.1
-54.31 -268.61 566.2
-51.93 -263.97 556.4
-45.59 -238.39 502.5
-38.50 -207.24 436.8
-36.07 -200.01 421.6
-35.73 -204.32 430.7
-31.87 -188.11 396.5
-26.29 -160.35 338.0
-25.28 -159.52 336.2
-25.46 -166.39 350.7
-21.96 -148.87 313.8
-19.82 -139.48 294.0
-20.23 -148.06 312.1
-19.10 -151.95 320.3
-18.12 -150.68 317.6
-18.20 -166.56 351.1
-18.94 -182.42 384.5
-18.37 -186.72 393.6
-19.18 -206.44 435.1
-19.96 -228.31 481.2
-19.21 -234.33 493.9
-19.21 -251.05 529.2
-19.27 -271.21 571.6
-18.17 -332.54 700.9
-16.99 -345.41 728.0
68.91 -370.89 781.7
68.96 -360.57 760.0
67.98 -345.55 728.3
62.51 -309.18 651.7
48.47 -216.33 456.0
47.29 -206.04 434.3
41.09 -174.86 368.6
33.38 -129.95 273.9
36.09 -137.59 290.0
31.70 -118.39 249.5
41.63 -149.39 314.9
44.98 -158.29 333.6
41.89 -144.63 304.8
40.03 -135.66 285.9
47.66 -158.57 334.2
56.57 -184.88 389.7
55.45 -178.02 375.2
67.50 -205.87 433.9
76.66 -229.99 484.8
-45.41 -232.11 486.6
-43.67 -229.58 481.3
-40.84 -221.04 463.4
-36.11 -201.33 422.0
-33.60 -193.21 405.0
-32.48 -192.81 404.2
-29.83 -182.97 383.5
-24.98 -158.51 332.3
-21.38 -140.49 294.5
-20.67 -152.16 319.0
-19.96 -153.04 320.8
-18.49 -147.90 310.0
-16.79 -162.59 340.8
-16.71 -170.78 358.0
-16.18 -175.10 367.1
-18.63 -244.86 513.3
-19.28 -272.85 572.0
-18.69 -286.64 600.9
-16.42 -335.76 703.8
-15.22 -349.98 733.7
69.22 -398.01 834.3
67.75 -377.76 791.9
67.49 -365.25 765.7
64.73 -340.29 713.3
58.42 -298.61 626.0
55.55 -276.24 579.1
52.70 -255.17 534.9
48.65 -223.77 469.1
47.27 -212.15 444.7
44.11 -193.25 405.1
44.05 -188.49 395.1
43.32 -181.17 379.8
36.97 -151.15 316.9
30.29 -121.15 254.0
31.59 -123.69 259.3
33.37 -127.93 268.2
29.85 -112.07 234.9
39.93 -144.08 302.0
42.28 -149.59 313.6
41.72 -144.85 303.6
42.75 -145.66 305.3
50.93 -170.39 357.2
60.16 -197.66 414.3
58.96 -190.34 399.0
56.75 -180.04 377.4
-44.52 -235.34 490.7
-40.88 -222.45 463.8
-35.46 -198.77 414.4
-28.33 -174.72 364.3
-26.11 -166.55 347.2
-22.21 -146.72 305.9
-20.53 -140.70 293.4
-19.35 -137.70 287.1
-19.02 -140.74 293.4
-17.70 -136.44 284.5
-15.57 -125.23 261.1
-17.15 -144.25 300.8
-18.78 -165.43 344.9
-16.11 -149.04 310.7
-14.24 -138.68 289.1
-15.64 -160.73 335.1
-16.24 -176.74 368.5
-18.02 -238.16 496.5
-20.17 -287.02 598.4
-19.24 -296.55 618.3
-17.27 -290.52 605.7
-15.48 -318.22 663.5
-15.20 -351.53 732.9
-13.91 -367.54 766.3
67.80 -404.59 843.5
66.24 -382.95 798.4
65.61 -367.80 766.8
65.21 -354.80 739.7
62.30 -329.30 686.6
56.86 -292.17 609.2
56.96 -284.79 593.8
50.88 -247.69 516.4
43.13 -204.57 426.5
42.36 -195.91 408.5
40.07 -180.80 377.0
36.74 -161.83 337.4
36.40 -156.63 326.6
37.14 -156.16 325.6
32.54 -133.76 278.9
29.62 -119.10 248.3
34.40 -135.41 282.3
35.57 -137.09 285.8
31.18 -117.72 245.4
33.98 -123.24 257.0
37.65 -133.94 279.3
38.48 -134.33 280.1
47.56 -159.99 333.6
58.80 -194.25 405.0
58.91 -191.19 398.6
54.95 -175.27 365.4
91.65 -273.48 570.2
102.13 -299.92 625.3
-62.40 -305.46 633.4
-47.82 -254.12 527.0
-43.06 -235.55 488.5
-37.34 -210.47 436.5
-27.64 -177.25 367.6
-25.45 -169.04 350.5
-23.16 -159.53 330.8
-21.39 -153.05 317.4
-19.17 -142.66 295.8
-16.06 -124.47 258.1
-15.55 -125.78 260.8
-18.57 -157.03 325.6
-20.47 -181.34 376.1
-18.29 -170.08 352.7
-15.34 -150.14 311.3
-15.83 -163.61 339.3
-17.02 -186.19 386.1
-16.14 -214.46 444.7
-19.54 -279.60 579.8
-19.61 -303.93 630.3
-17.64 -298.30 618.6
-16.20 -301.36 624.9
-14.92 -308.33 639.4
-14.23 -330.92 686.2
-13.24 -351.78 729.5
-11.14 -345.28 716.0
64.55 -387.30 803.2
60.96 -354.32 734.8
61.93 -349.06 723.9
62.77 -343.36 712.0
59.71 -317.33 658.0
54.54 -281.77 584.3
55.70 -279.99 580.6
50.38 -246.61 511.4
32.99 -146.11 303.0
30.33 -122.65 254.3
34.26 -135.57 281.1
34.20 -132.52 274.8
32.86 -124.72 258.6
34.44 -128.13 265.7
35.95 -131.12 271.9
37.01 -132.38 274.5
45.35 -153.37 318.1
58.22 -193.38 401.0
60.04 -195.90 406.3
57.71 -185.08 383.8
96.29 -288.88 599.1
107.56 -317.57 658.6
-66.76 -328.52 677.6
-61.83 -312.50 644.6
-41.14 -233.14 480.9
-35.96 -210.12 433.4
-24.64 -164.55 339.4
-22.88 -158.48 326.9
-22.10 -158.94 327.8
-20.84 -155.91 321.6
-17.16 -133.72 275.8
-18.30 -155.54 320.8
-19.47 -173.42 357.7
-18.46 -172.57 355.9
-16.78 -165.18 340.7
-14.73 -152.99 315.6
-14.66 -195.77 403.8
-16.76 -241.13 497.4
-17.55 -273.42 564.0
-16.32 -277.36 572.1
-15.56 -290.90 600.0
-14.80 -307.49 634.2
-13.64 -318.84 657.7
-12.54 -334.99 691.0
-11.11 -346.35 714.4
66.87 -403.35 832.0
59.03 -344.99 711.6
56.72 -321.44 663.0
60.17 -330.95 682.6
58.19 -310.88 641.2
48.20 -250.40 516.5
45.49 -229.92 474.2
47.86 -235.52 485.8
44.04 -211.14 435.5
37.44 -175.05 361.1
35.61 -162.42 335.0
37.74 -168.02 346.6
36.73 -159.74 329.5
31.76 -134.96 278.4
31.32 -130.16 268.5
31.90 -129.69 267.5
33.68 -134.00 276.4
34.72 -135.26 279.0
34.19 -130.46 269.1
36.50 -136.49 281.5
38.51 -141.22 291.3
51.29 -174.38 359.7
63.22 -211.10 435.4
63.53 -208.44 429.9
63.56 -204.91 422.7
71.18 -225.60 465.3
97.63 -299.31 617.4
103.35 -311.73 643.0
111.82 -331.91 684.6
-59.36 -301.63 618.8
-43.55 -248.13 509.1
-40.98 -240.74 493.9
-23.95 -173.18 355.3
-23.09 -173.65 356.3
-19.77 -154.86 317.7
-17.92 -153.15 314.2
-18.09 -161.92 332.2
-16.11 -151.43 310.7
-15.53 -153.63 315.2
-14.63 -152.77 313.4
-14.64 -196.62 403.4
-15.38 -222.47 456.4
-14.87 -233.00 478.0
-14.07 -240.46 493.3
-13.77 -258.87 531.1
-13.36 -279.03 572.5
-12.45 -292.62 600.4
-11.74 -315.42 647.1
-10.58 -331.64 680.4
62.31 -403.92 828.7
63.40 -397.29 815.1
63.63 -385.87 791.7
57.64 -338.61 694.7
53.29 -303.61 622.9
55.06 -304.43 624.6
55.61 -298.69 612.8
49.66 -259.34 532.1
44.76 -227.42 466.6
45.17 -223.45 458.4
44.44 -214.24 439.6
41.21 -193.69 397.4
35.57 -163.12 334.7
33.80 -151.31 310.4
36.00 -157.38 322.9
34.38 -146.88 301.4
33.90 -141.62 290.6
34.22 -139.84 286.9
33.75 -135.01 277.0
32.57 -127.58 261.7
31.99 -122.76 251.9
34.84 -130.99 268.8
48.82 -166.88 342.4
52.80 -177.26 363.7
59.65 -196.75 403.7
66.04 -214.05 439.2
71.92 -229.18 470.2
84.34 -264.25 542.2
-51.73 -279.36 570.1
-46.11 -264.11 539.0
-23.35 -157.63 321.7
-21.83 -152.82 311.9
-22.36 -162.51 331.6
-20.92 -158.14 322.7
-19.08 -150.25 306.6
-17.91 -147.19 300.4
-17.80 -152.92 312.1
-17.14 -154.26 314.8
-14.05 -132.74 270.9
-12.64 -125.72 256.6
-14.19 -149.03 304.2
-14.36 -159.60 325.7
-12.62 -149.06 304.2
-14.20 -191.74 391.3
-14.76 -214.63 438.0
-13.91 -219.04 447.0
-12.70 -218.18 445.3
-11.64 -219.95 448.9
-7.68 -363.00 740.8
60.69 -395.55 807.3
63.05 -397.25 810.7
64.64 -394.11 804.3
58.99 -348.41 711.0
51.40 -294.38 600.8
49.87 -277.22 565.8
44.42 -239.89 489.6
43.01 -225.82 460.8
43.25 -220.95 450.9
48.38 -240.63 491.1
51.90 -251.53 513.3
43.67 -206.35 421.1
32.78 -151.12 308.4
29.58 -133.13 271.7
30.68 -134.85 275.2
32.41 -139.20 284.1
35.63 -149.67 305.4
32.90 -135.19 275.9
29.15 -117.22 239.2
26.88 -105.82 216.0
35.73 -132.39 270.2
37.02 -134.54 274.6
-57.52 -312.27 633.9
-52.97 -296.03 601.0
-46.76 -269.20 546.5
-30.89 -202.37 410.8
-27.49 -186.52 378.7
-23.44 -164.94 334.8
-21.73 -158.79 322.4
-20.90 -158.81 322.4
-19.51 -154.42 313.5
-18.59 -153.56 311.7
-18.55 -160.20 325.2
-17.95 -162.42 329.7
-12.21 -128.92 261.7
-13.04 -145.71 295.8
-12.03 -152.36 309.3
-13.67 -185.50 376.6
-12.33 -180.21 365.8
-10.98 -260.67 529.2
-9.73 -264.22 536.4
-7.54 -358.36 727.5
57.47 -404.42 821.0
56.67 -384.51 780.6
55.85 -365.94 742.9
58.95 -373.37 758.0
62.63 -383.89 779.3
59.30 -352.10 714.8
50.12 -288.59 585.9
45.96 -256.82 521.4
40.49 -219.78 446.2
39.38 -207.84 421.9
37.38 -191.95 389.7
40.67 -203.36 412.8
45.26 -220.48 447.6
36.96 -175.56 356.4
30.19 -139.89 284.0
31.60 -142.93 290.2
29.95 -132.35 268.7
28.81 -124.41 252.6
33.62 -141.96 288.2
32.76 -135.33 274.7
29.66 -119.92 243.4
34.63 -129.01 261.9
36.38 -132.92 269.8
-50.76 -293.79 593.3
-44.41 -265.08 535.3
-39.51 -243.44 491.6
-29.91 -197.03 397.9
-28.95 -197.50 398.8
-27.05 -191.33 386.4
-23.64 -173.64 350.7
-21.22 -162.14 327.4
-19.93 -158.62 320.3
-19.21 -159.53 322.2
-17.82 -154.67 312.3
-15.69 -142.72 288.2
-15.64 -149.39 301.7
-15.79 -158.71 320.5
-13.16 -139.66 282.0
-11.05 -124.16 250.7
-12.57 -160.10 323.3
-14.69 -200.47 404.8
-13.71 -201.37 406.7
-10.21 -278.64 562.7
-8.33 -318.15 642.5
49.27 -392.12 791.9
53.00 -404.91 817.7
54.63 -401.31 810.4
53.90 -381.33 770.1
53.62 -365.77 738.7
52.84 -348.01 702.8
47.28 -301.03 607.9
51.45 -297.78 601.3
47.33 -265.87 536.9
42.63 -232.65 469.8
40.59 -215.36 434.9
37.86 -195.42 394.6
36.59 -183.89 371.4
36.82 -180.31 364.1
29.82 -135.59 273.8
25.85 -114.81 231.8
33.79 -140.32 283.4
40.60 -164.98 333.2
39.68 -157.89 318.8
35.74 -139.33 281.4
37.04 -141.49 285.7
40.36 -151.15 305.2
-50.51 -303.08 608.9
-21.87 -161.47 324.4
-17.08 -149.09 299.5
-14.02 -128.19 257.5
-14.54 -146.91 295.1
-13.32 -142.03 285.3
-11.71 -132.25 265.7
-12.36 -148.29 297.9
-13.48 -199.10 400.0
-12.81 -204.91 411.6
-7.58 -290.97 584.5
-7.14 -342.67 688.4
-5.66 -362.28 727.8
-3.70 -355.16 713.5
49.72 -397.77 799.1
49.30 -378.59 760.6
39.76 -263.21 528.8
39.67 -217.64 437.2
43.21 -230.47 463.0
40.56 -210.45 422.8
39.18 -197.98 397.7
40.57 -199.71 401.2
37.90 -181.92 365.5
25.92 -115.73 232.5
23.06 -100.63 202.2
25.66 -109.47 219.9
33.12 -138.25 277.7
40.45 -165.24 331.9
39.86 -159.44 320.3
32.88 -128.85 258.8
42.20 -158.87 319.2
46.01 -169.89 341.3
-19.97 -167.57 334.9
-17.78 -155.97 311.7
-14.00 -142.16 284.1
-13.68 -146.65 293.1
-13.00 -147.55 294.9
-12.38 -149.36 298.5
-9.66 -124.32 248.5
-8.89 -190.58 380.9
-8.23 -198.65 397.0
-7.20 -277.87 555.3
-7.04 -339.62 678.7
-5.71 -367.37 734.2
-3.73 -360.22 719.9
9.46 -365.12 729.7
43.77 -402.25 803.9
48.39 -389.15 777.7
47.97 -370.34 740.1
39.85 -265.20 530.0
34.20 -212.90 425.5
42.03 -253.47 506.6
43.64 -255.21 510.0
40.00 -227.06 453.8
42.14 -232.37 464.4
46.16 -247.49 494.6
43.68 -227.82 455.3
42.13 -213.96 427.6
43.68 -216.15 432.0
38.05 -183.57 366.9
29.24 -137.65 275.1
30.65 -137.59 275.0
28.32 -118.80 237.4
32.72 -134.34 268.5
33.96 -136.53 272.9
42.04 -159.09 317.9
45.37 -168.38 336.5
-35.85 -239.85 476.9
-29.02 -208.53 414.6
-19.48 -157.47 313.1
-21.07 -177.68 353.3
-14.73 -150.38 299.0
-13.29 -143.21 284.7
-12.59 -143.67 285.7
-12.04 -145.93 290.1
-9.96 -128.88 256.2
-9.23 -199.01 395.7
-8.87 -215.19 427.8
-7.33 -203.07 403.7
-7.46 -241.27 479.7
-7.36 -285.75 568.1
-6.75 -327.55 651.2
-5.54 -358.56 712.9
-3.69 -357.66 711.1
-1.89 -367.55 730.8
1.88 -364.41 724.5
3.88 -376.53 748.6
18.63 -278.01 552.7
32.43 -419.42 833.9
42.85 -415.63 826.4
40.86 -377.44 750.4
40.46 -356.75 709.3
45.09 -349.89 695.7
41.60 -310.37 617.1
40.77 -282.48 561.6
44.10 -294.99 586.5
40.41 -261.33 519.6
37.74 -236.19 469.6
41.54 -251.83 500.7
43.36 -254.93 506.8
39.57 -225.76 448.9
44.28 -245.43 488.0
51.02 -274.93 546.6
47.56 -249.36 495.8
44.71 -228.28 453.9
39.04 -194.22 386.1
26.72 -123.43 245.4
32.01 -144.42 287.1
30.62 -135.00 268.4
29.45 -124.21 247.0
32.25 -133.11 264.7
35.66 -138.37 275.1
44.11 -167.78 333.6
-48.96 -318.22 629.4
-43.18 -290.36 574.3
-36.85 -256.63 507.6
-32.80 -236.86 468.5
-26.24 -196.81 389.3
-15.96 -183.04 362.0
-16.65 -202.89 401.3
-15.75 -204.71 404.9
-11.88 -165.49 327.4
-7.59 -147.95 292.6
-8.20 -177.72 351.5
-9.31 -226.90 448.8
-9.12 -253.98 502.4
-7.59 -246.77 488.1
-6.07 -236.85 468.5
-5.15 -251.29 497.1
-4.29 -278.82 551.5
-3.17 -309.50 612.2
-1.82 -354.17 700.6
0.00 -373.57 738.9
1.75 -341.99 676.5
14.92 -363.59 719.2
16.45 -356.35 704.9
17.67 -344.61 681.6
22.01 -330.11 653.0
24.22 -337.30 667.2
23.90 -310.67 614.5
25.71 -313.35 619.8
29.95 -343.53 679.5
32.17 -348.46 689.3
31.62 -324.53 641.9
30.97 -301.96 597.3
31.01 -287.96 569.6
31.52 -279.37 552.6
39.21 -305.84 605.0
39.45 -295.89 585.3
38.72 -279.63 553.1
38.98 -271.49 537.0
38.76 -260.64 515.6
36.16 -213.69 422.7
43.02 -239.69 474.1
52.96 -286.86 567.4
51.35 -270.62 535.3
41.95 -215.28 425.8
29.48 -147.39 291.5
28.58 -123.85 245.0
30.48 -129.21 255.6
38.41 -152.87 302.4
16.41 -62.73 124.1
-50.98 -333.07 655.5
-45.81 -309.62 609.3
-40.30 -282.09 555.1
-33.94 -246.41 484.9
-25.31 -190.83 375.5
-17.22 -153.37 301.8
-17.89 -166.97 328.6
-13.68 -148.91 293.1
-18.06 -208.23 409.8
-18.48 -226.35 445.4
-16.80 -219.58 432.1
-12.23 -171.15 336.8
-10.81 -163.01 320.8
-11.62 -189.74 373.4
-9.40 -167.56 329.7
-7.19 -176.19 346.7
-7.89 -221.04 435.0
-7.20 -235.09 462.6
-6.10 -239.18 470.7
-5.56 -272.25 535.8
-4.06 -265.01 521.5
-2.68 -262.29 516.2
-1.62 -318.02 625.8
0.00 -342.48 674.0
3.61 -353.80 696.3
7.78 -381.42 750.6
9.61 -376.88 741.7
11.55 -377.33 742.6
13.05 -365.54 719.3
14.22 -348.31 685.4
14.50 -315.68 621.2
14.21 -278.53 548.1
13.24 -235.94 464.3
12.67 -206.95 407.3
13.85 -208.75 410.8
14.78 -206.92 407.2
14.93 -195.13 384.0
16.37 -200.55 394.7
19.75 -227.69 448.1
20.78 -226.31 445.4
21.32 -219.95 432.9
22.77 -223.10 439.0
22.06 -205.88 405.2
22.70 -202.24 398.0
33.17 -260.05 511.8
32.57 -245.54 483.2
34.69 -251.84 495.6
39.39 -275.76 542.7
40.06 -270.75 532.8
38.18 -249.47 490.9
37.91 -232.22 457.0
38.18 -226.76 446.2
37.37 -215.42 423.9
37.41 -209.51 412.3
40.22 -218.96 430.9
46.86 -248.25 488.5
44.01 -226.99 446.7
41.12 -206.64 406.7
44.00 -215.62 424.3
36.42 -174.08 342.6
30.96 -137.91 271.4
30.31 -132.02 259.8
38.71 -154.85 304.7
64.56 -238.77 469.9
91.77 -333.10 655.5
92.81 -330.76 650.9
96.66 -338.30 665.7
-46.77 -317.68 622.0
-39.35 -276.88 542.1
-27.26 -206.58 404.5
-26.68 -210.25 411.6
-22.57 -185.29 362.8
-18.61 -159.43 312.1
-18.52 -165.81 324.6
-18.35 -172.19 337.1
-18.73 -184.47 361.2
-17.79 -184.49 361.2
-15.16 -165.88 324.8
-14.16 -164.07 321.2
-13.92 -171.36 335.5
-11.35 -149.10 291.9
-9.40 -132.29 259.0
-10.86 -164.58 322.2
-11.74 -192.78 377.5
-9.55 -170.97 334.7
-6.71 -188.74 369.5
-6.29 -206.48 404.3
-5.52 -217.40 425.7
-5.57 -274.26 537.0
-4.43 -291.10 570.0
-2.87 -282.46 553.0
-1.70 -334.31 654.6
0.00 -351.60 688.4
1.68 -331.13 648.3
3.17 -312.48 611.8
4.81 -316.11 618.9
5.96 -293.37 574.4
7.50 -295.63 578.8
9.63 -316.09 618.9
11.00 -309.71 606.4
12.02 -296.06 579.7
12.49 -273.31 535.1
12.35 -243.28 476.3
11.73 -210.07 411.3
10.86 -178.23 349.0
11.31 -171.40 335.6
13.25 -186.39 364.9
14.61 -191.83 375.6
13.03 -160.45 314.2
14.70 -160.88 315.0
17.31 -179.49 351.4
20.30 -199.92 391.4
22.04 -206.71 404.7
22.52 -201.69 394.9
23.65 -202.58 396.6
24.07 -197.56 386.8
24.26 -191.17 374.3
26.55 -201.14 393.8
31.48 -229.71 449.8
34.06 -239.66 469.2
32.54 -221.02 432.7
34.00 -223.25 437.1
36.41 -231.38 453.0
35.07 -215.92 422.8
31.22 -186.40 365.0
31.85 -184.56 361.3
34.15 -192.23 376.4
33.63 -184.03 360.3
37.20 -198.05 387.8
41.17 -213.41 417.9
44.03 -222.43 435.5
45.71 -225.10 440.7
35.53 -170.72 334.2
30.69 -143.97 281.9
41.00 -187.84 367.8
38.71 -173.32 339.3
27.39 -119.89 234.7
85.51 -317.84 622.3
-47.58 -324.89 632.9
-34.81 -255.25 497.2
-33.52 -255.28 497.3
-32.24 -255.32 497.4
-27.36 -225.71 439.7
-18.33 -157.79 307.4
-12.95 -128.19 249.7
-13.79 -143.72 280.0
-12.40 -136.43 265.8
-11.13 -129.60 252.5
-10.66 -131.89 256.9
-11.00 -145.14 282.7
-11.55 -163.41 318.3
-11.27 -171.63 334.4
-10.68 -176.21 343.3
-9.69 -174.39 339.7
-8.69 -172.12 335.3
-2.78 -110.05 214.4
-2.38 -235.19 458.2
-1.42 -281.31 548.0
0.00 -307.34 598.7
1.33 -263.05 512.4
4.03 -266.24 518.6
5.50 -272.17 530.2
5.60 -221.93 432.3
8.35 -236.07 459.9
10.28 -254.33 495.4
10.58 -232.86 453.6
10.38 -205.45 400.2
10.27 -184.90 360.2
10.10 -166.62 324.6
10.91 -166.16 323.7
12.81 -181.21 353.0
12.45 -164.31 320.1
9.81 -121.39 236.5
10.58 -123.21 240.0
13.81 -151.94 296.0
14.05 -146.45 285.3
14.38 -142.33 277.3
15.29 -144.14 280.8
14.95 -134.55 262.1
21.01 -160.01 311.7
24.18 -177.30 345.4
24.94 -176.37 343.6
27.24 -174.01 339.0
26.72 -165.32 322.1
29.67 -178.05 346.8
37.45 -218.08 424.8
41.56 -216.55 421.8
43.81 -222.42 433.3
44.74 -221.46 431.4
36.15 -174.59 340.1
33.75 -159.09 309.9
37.70 -173.60 338.2
28.59 -123.07 239.7
36.64 -154.37 300.7
49.63 -204.71 398.8
43.01 -173.80 338.6
83.95 -319.67 622.7
-43.52 -320.79 621.8
-40.06 -306.65 594.4
-36.80 -292.95 567.8
-32.63 -270.56 524.4
-23.81 -206.04 399.4
-15.34 -138.75 268.9
-12.47 -118.15 229.0
-14.04 -139.69 270.8
-15.44 -161.70 313.4
-14.79 -163.54 317.0
-14.21 -166.31 322.3
-12.56 -156.24 302.8
-11.81 -156.71 303.8
-13.28 -188.80 366.0
-13.62 -208.52 404.2
-12.08 -200.29 388.2
-10.29 -186.09 360.7
-9.49 -188.85 366.0
-7.94 -175.57 340.3
-2.09 -208.16 403.5
-1.32 -263.18 510.1
0.00 -254.47 493.2
0.90 -179.73 348.4
1.89 -187.98 364.4
3.92 -259.96 503.9
5.37 -267.29 518.1
5.82 -231.53 448.8
5.85 -166.41 322.6
7.13 -177.41 343.9
7.09 -156.77 303.9
6.01 -119.64 231.9
5.30 -95.80 185.7
6.63 -110.00 213.2
8.35 -127.86 247.8
8.70 -123.73 239.8
7.84 -104.02 201.6
7.22 -89.81 174.1
8.34 -97.59 189.1
9.57 -105.82 205.1
9.27 -97.11 188.2
9.76 -97.10 188.2
10.78 -102.13 197.9
11.39 -103.03 199.7
12.70 -109.89 213.0
12.59 -104.38 202.3
14.03 -111.69 216.5
16.98 -129.98 251.9
18.87 -139.12 269.6
21.18 -150.53 291.8
22.07 -151.43 293.5
23.03 -152.77 296.1
25.86 -166.01 321.8
26.84 -166.90 323.5
31.46 -189.73 367.7
37.80 -221.24 428.8
15.71 -86.82 168.3
31.30 -135.42 262.5
44.14 -186.89 362.2
54.41 -225.58 437.2
28.61 -113.87 220.7
51.00 -199.00 385.7
-32.86 -262.87 507.0
-30.33 -252.79 487.5
-25.27 -219.72 423.8
-21.19 -192.63 371.5
-16.80 -160.00 308.6
-16.78 -167.84 323.7
-17.56 -184.87 356.5
-16.52 -183.51 353.9
-13.88 -163.29 314.9
-11.30 -173.92 335.4
-10.22 -170.25 328.3
-9.36 -170.26 328.4
-9.55 -190.98 368.3
-9.13 -202.96 391.4
-5.80 -193.31 372.8
-5.18 -207.13 399.5
-2.01 -200.70 387.1
-1.16 -231.08 445.7
0.00 -201.62 388.8
1.02 -204.84 395.0
2.66 -266.06 513.1
3.94 -262.83 506.9
4.45 -222.32 428.8
4.87 -194.70 375.5
4.46 -148.67 286.7
4.66 -133.01 256.5
5.47 -136.69 263.6
4.87 -108.15 208.6
4.07 -81.45 157.1
4.40 -80.07 154.4
5.63 -93.87 181.0
6.25 -96.16 185.5
6.22 -88.80 171.2
6.25 -83.27 160.6
6.33 -79.12 152.6
6.80 -80.03 154.4
7.24 -80.49 155.2
7.51 -79.10 152.5
8.09 -80.93 156.1
9.27 -88.28 170.3
10.82 -98.38 189.7
11.58 -100.67 194.1
11.53 -96.06 185.3
12.58 -100.64 194.1
15.05 -115.79 223.3
15.69 -116.24 224.2
16.14 -115.30 222.4
26.62 -171.72 331.2
29.31 -183.17 353.3
37.96 -161.55 311.6
-34.43 -266.17 510.8
-32.89 -275.47 528.6
-28.09 -245.51 471.1
-25.01 -228.46 438.4
-21.80 -208.64 400.4
-18.19 -182.81 350.8
-15.89 -168.05 322.5
-9.19 -184.80 354.6
-9.00 -200.98 385.7
-9.20 -231.03 443.3
-9.24 -265.23 509.0
-7.93 -265.70 509.9
-5.77 -231.97 445.2
-3.83 -192.24 368.9
-2.50 -167.29 321.0
0.00 -195.94 376.0
1.06 -212.58 407.9
2.25 -226.44 434.5
2.77 -185.77 356.5
3.26 -163.59 313.9
3.83 -153.88 295.3
3.41 -114.13 219.0
3.72 -106.74 204.8
3.90 -97.95 188.0
3.50 -78.08 149.8
3.82 -76.69 147.2
4.58 -83.62 160.5
5.02 -84.08 161.3
5.20 -80.37 154.2
5.24 -75.29 144.5
5.73 -72.04 138.2
6.52 -77.12 148.0
6.53 -72.95 140.0
7.26 -72.94 140.0
8.49 -81.24 155.9
9.24 -84.46 162.1
9.45 -82.61 158.5
11.02 -92.29 177.1
14.40 -115.80 222.2
15.10 -116.71 224.0
14.00 -104.24 200.0
15.16 -108.84 208.9
18.76 -130.03 249.5
22.64 -151.68 291.1
26.73 -173.32 332.6
27.08 -170.07 326.4
33.61 -193.01 370.4
43.05 -221.86 425.7
45.51 -228.71 438.9
-42.93 -346.91 662.4
-30.23 -265.46 506.9
-29.67 -272.45 520.2
-24.76 -238.18 454.8
-19.82 -200.21 382.3
-18.05 -191.89 366.4
-15.53 -174.29 332.8
-13.70 -184.54 352.4
-10.64 -153.48 293.1
-8.54 -132.63 253.2
-8.87 -149.33 285.1
-9.87 -181.34 346.3
-8.98 -226.83 433.1
-8.78 -253.27 483.6
-7.23 -243.54 465.0
-5.05 -204.12 389.8
-1.98 -200.42 382.7
0.82 -164.70 314.5
1.58 -160.06 305.6
3.06 -154.48 295.0
3.61 -145.67 278.1
3.55 -119.68 228.5
3.12 -89.99 171.8
2.90 -73.29 139.9
3.97 -66.78 127.5
4.60 -71.41 136.4
5.58 -70.47 134.6
6.63 -78.81 150.5
6.98 -78.34 149.6
6.84 -72.77 138.9
7.66 -77.40 147.8
8.77 -84.34 161.0
9.44 -86.65 165.4
9.60 -84.32 161.0
10.46 -88.01 168.1
12.15 -98.19 187.5
12.34 -95.86 183.0
12.01 -89.83 171.5
13.41 -96.76 184.8
17.54 -122.21 233.4
23.44 -157.83 301.4
23.65 -154.10 294.2
19.35 -122.15 233.2
26.00 -154.48 295.0
36.38 -209.95 400.9
39.06 -219.16 418.5
39.12 -213.57 407.8
48.86 -259.74 496.0
12.94 -63.74 121.7
27.91 -131.12 250.4
38.02 -160.02 305.5
56.36 -232.36 443.7
78.03 -303.11 578.8
-38.94 -343.70 653.1
-31.56 -291.18 553.3
-19.55 -208.92 397.0
-7.90 -123.36 234.4
-8.75 -148.05 281.3
-10.19 -188.10 357.4
-7.18 -208.16 395.5
-6.40 -216.55 411.5
-4.94 -200.72 381.4
-1.95 -197.93 376.1
-0.99 -201.20 382.3
0.00 -173.25 329.2
0.81 -164.40 312.4
1.73 -176.05 334.5
2.64 -178.84 339.8
2.97 -150.89 286.7
3.15 -128.07 243.3
3.36 -113.63 215.9
3.29 -95.46 181.4
3.28 -83.35 158.4
3.36 -75.90 144.2
3.56 -72.17 137.1
3.91 -72.17 137.1
4.18 -70.76 134.5
5.49 -79.60 151.2
5.85 -79.13 150.3
6.02 -76.33 145.0
6.63 -79.11 150.3
8.23 -79.55 151.1
8.92 -82.33 156.4
9.17 -80.92 153.8
9.29 -78.59 149.3
9.56 -77.65 147.5
9.35 -72.99 138.7
8.84 -66.47 126.3
9.42 -68.32 129.8
12.08 -84.58 160.7
16.07 -108.72 206.6
17.52 -114.75 218.0
17.50 -111.01 210.9
22.65 -139.32 264.7
26.60 -158.80 301.7
32.50 -188.48 358.1
37.12 -209.33 397.7
40.01 -219.50 417.1
54.37 -290.45 551.9
54.45 -283.43 538.5
27.34 -132.12 251.0
66.99 -309.07 587.3
-32.42 -330.66 625.2
-27.80 -298.47 564.3
-14.40 -172.85 326.8
-8.93 -202.40 382.7
-10.14 -258.50 488.8
-7.60 -221.58 419.0
-5.02 -204.76 387.2
-4.25 -216.92 410.1
-2.83 -192.15 363.3
-1.98 -202.44 382.8
-1.00 -203.84 385.4
0.00 -176.73 334.1
0.83 -170.18 321.8
1.77 -180.46 341.2
2.50 -170.18 321.8
2.78 -141.65 267.8
2.80 -114.07 215.7
2.91 -99.11 187.4
3.18 -92.56 175.0
3.41 -86.95 164.4
3.75 -85.07 160.8
4.19 -85.53 161.7
4.81 -89.27 168.8
5.31 -90.20 170.5
8.07 -68.62 129.7
8.92 -72.81 137.7
9.58 -75.14 142.1
10.07 -76.06 143.8
11.85 -86.31 163.2
12.27 -86.30 163.2
11.80 -80.23 151.7
14.10 -92.80 175.5
17.70 -112.84 213.3
24.66 -152.45 288.2
32.71 -196.23 371.0
31.50 -183.62 347.2
26.23 -148.64 281.0
28.31 -156.06 295.1
43.55 -233.81 442.1
52.26 -273.35 516.8
46.47 -236.98 448.1
52.95 -263.46 498.1
59.44 -257.98 487.8
65.06 -276.51 522.8
-31.77 -342.74 644.9
-19.39 -265.01 498.6
-5.30 -83.50 157.1
-5.68 -97.11 182.7
-11.01 -225.68 424.6
-11.23 -255.72 481.1
-10.53 -269.81 507.7
-6.71 -196.62 369.9
-4.08 -209.31 393.8
-2.83 -193.35 363.8
-1.75 -179.75 338.2
-0.79 -161.44 303.8
0.00 -131.88 248.1
0.60 -122.02 229.6
1.26 -129.06 242.8
1.81 -123.43 232.2
2.09 -107.00 201.3
2.22 -91.04 171.3
2.57 -87.75 165.1
2.96 -86.81 163.3
3.24 -83.05 156.3
3.60 -82.11 154.5
4.03 -82.58 155.4
4.56 -84.92 159.8
11.60 -88.06 165.7
12.28 -89.92 169.2
11.20 -79.14 148.9
14.25 -91.27 171.7
22.15 -137.59 258.9
30.34 -182.95 344.2
33.47 -196.01 368.8
25.71 -146.40 275.5
38.48 -207.59 390.6
52.56 -276.27 519.8
22.62 -115.91 218.1
35.41 -172.85 325.2
54.21 -246.96 464.7
53.31 -237.57 447.0
48.36 -210.91 396.8
61.61 -263.11 495.0
82.94 -346.99 652.9
-8.89 -140.80 263.6
-10.02 -229.38 429.5
-9.49 -244.46 457.7
-7.33 -215.73 403.9
-5.93 -203.49 381.0
-4.73 -195.02 365.2
-3.38 -174.30 326.4
-2.55 -175.24 328.1
-1.70 -174.78 327.2
-0.71 -146.51 274.3
0.00 -111.18 208.2
0.44 -91.39 171.1
0.86 -88.09 164.9
1.41 -96.57 180.8
1.80 -92.80 173.8
1.98 -81.49 152.6
2.32 -79.61 149.1
2.69 -79.13 148.2
2.93 -75.36 141.1
3.33 -76.30 142.9
3.80 -78.18 146.4
10.93 -80.39 150.5
11.05 -78.50 147.0
12.18 -83.66 156.6
12.23 -81.30 152.2
13.72 -88.33 165.4
16.93 -105.70 197.9
19.61 -118.83 222.5
24.97 -146.98 275.2
24.86 -142.26 266.4
54.20 -293.80 550.1
66.36 -350.52 656.3
54.02 -278.20 520.9
24.46 -122.89 230.1
41.15 -192.65 360.7
54.77 -250.71 469.4
-30.57 -333.06 620.6
-14.22 -245.33 457.1
-10.28 -236.39 440.5
-9.26 -239.71 446.7
-6.99 -206.62 385.0
-5.28 -182.04 339.2
-4.01 -165.97 309.3
-1.96 -135.24 252.0
-1.49 -154.16 287.2
-0.71 -146.12 272.3
0.00 -109.23 203.5
0.85 -87.48 163.0
1.40 -96.94 180.6
1.80 -93.15 173.6
2.00 -82.75 154.2
2.36 -81.33 151.5
2.70 -79.91 148.9
2.89 -74.70 139.2
3.23 -74.23 138.3
2.38 -49.17 91.6
10.98 -81.17 151.2
12.36 -88.23 164.4
12.92 -89.16 166.1
12.43 -83.02 154.7
13.49 -87.25 162.6
15.41 -96.66 180.1
16.03 -97.59 181.8
17.93 -106.06 197.6
21.15 -121.59 226.6
31.75 -177.64 331.0
50.68 -276.07 514.4
61.14 -324.52 604.7
64.15 -331.99 618.6
69.01 -348.40 649.2
52.31 -246.07 458.5
70.76 -325.51 606.5
-31.45 -344.27 638.4
-22.38 -332.56 616.7
-20.31 -324.99 602.7
-16.10 -278.99 517.4
-13.02 -246.26 456.7
-11.91 -247.70 459.3
-8.30 -191.72 355.5
-4.47 -132.88 246.4
-4.15 -143.80 266.7
-3.43 -142.86 264.9
-2.55 -132.42 245.6
-1.70 -117.71 218.3
-1.21 -125.78 233.2
-0.64 -132.43 245.6
0.00 -111.54 206.8
0.84 -87.81 162.8
1.32 -91.60 169.9
1.66 -86.38 160.2
2.04 -84.96 157.5
2.52 -87.33 161.9
2.87 -85.43 158.4
3.08 -80.20 148.7
3.33 -76.88 142.6
2.46 -51.25 95.0
2.74 -51.72 95.9
9.95 -73.89 137.0
11.09 -79.57 147.5
11.47 -79.55 147.5
11.78 -79.07 146.6
13.91 -90.42 167.7
15.62 -98.45 182.6
16.17 -98.90 183.4
18.47 -109.77 203.6
22.43 -129.62 240.4
24.73 -139.05 257.9
32.05 -175.43 325.3
45.56 -243.01 450.6
54.09 -281.24 521.5
62.04 -314.74 583.6
-23.25 -347.13 640.6
-23.61 -379.53 700.4
-19.03 -331.46 611.7
-14.21 -270.04 498.4
-12.03 -251.48 464.1
-7.79 -181.00 334.0
-4.99 -149.10 275.2
-4.01 -139.57 257.6
-2.99 -124.81 230.3
-2.31 -120.53 222.4
-1.61 -111.95 206.6
-1.13 -118.15 218.0
-0.59 -122.91 226.8
0.00 -114.81 211.9
0.49 -102.43 189.0
0.95 -99.09 182.9
1.42 -99.09 182.9
1.80 -93.85 173.2
2.19 -91.46 168.8
2.49 -86.70 160.0
2.70 -80.50 148.6
2.90 -75.74 139.8
3.12 -72.40 133.6
3.67 -76.68 141.5
4.36 -82.87 152.9
4.81 -83.82 154.7
11.02 -79.39 146.5
12.28 -85.55 157.9
13.89 -93.62 172.8
14.77 -96.45 178.0
14.85 -94.06 173.6
15.61 -95.95 177.1
17.73 -105.90 195.4
20.69 -120.13 221.7
22.36 -126.28 233.0
28.22 -155.20 286.4
41.18 -220.66 407.2
49.85 -260.47 480.7
60.39 -307.85 568.1
-26.03 -390.47 717.2
-21.20 -370.92 681.3
-13.37 -255.26 468.8
-6.64 -154.89 284.5
-5.72 -150.12 275.7
-5.18 -155.38 285.4
-4.10 -143.44 263.5
-2.87 -120.49 221.3
-1.04 -109.50 201.1
-0.57 -119.54 219.6
0.00 -117.63 216.1
0.52 -109.50 201.1
1.02 -107.11 196.7
1.33 -92.76 170.4
1.50 -78.89 144.9
1.90 -79.85 146.7
2.21 -77.46 142.3
2.45 -73.63 135.2
2.68 -70.28 129.1
2.95 -68.84 126.4
3.57 -75.05 137.9
4.28 -81.74 150.1
4.75 -83.17 152.8
11.46 -83.02 152.5
11.86 -83.01 152.5
13.31 -90.15 165.6
14.24 -93.47 171.7
14.39 -91.55 168.2
15.13 -93.44 171.6
17.00 -102.00 187.4
18.87 -110.09 202.2
20.06 -113.88 209.2
24.83 -137.20 252.0
35.20 -189.56 348.2
44.35 -232.86 427.7
51.77 -265.19 487.1
68.35 -341.77 627.7
-23.82 -386.65 706.8
-21.12 -371.32 678.8
-15.38 -295.06 539.4
-8.48 -178.96 327.2
-6.10 -142.99 261.4
-4.80 -126.68 231.6
-4.09 -123.32 225.4
-3.51 -123.33 225.4
-2.59 -109.42 200.0
-2.11 -111.34 203.5
-1.70 -119.50 218.4
-1.14 -120.46 220.2
-0.59 -124.78 228.1
0.00 -114.22 208.8
0.46 -97.90 179.0
0.93 -98.38 179.8
1.21 -85.42 156.2
1.76 -74.38 136.0
2.67 -70.54 128.9
3.21 -75.33 137.7
3.73 -78.69 143.8
4.33 -83.00 151.7
4.61 -81.08 148.2
11.06 -83.34 152.3
11.25 -81.89 149.7
11.64 -81.88 149.7
12.94 -88.09 161.0
13.94 -91.90 168.0
14.00 -89.49 163.6
14.80 -91.87 167.9
16.51 -99.51 181.9
19.10 -111.93 204.6
21.47 -122.43 223.8
24.63 -136.75 250.0
32.07 -173.53 317.2
40.68 -214.60 392.3
49.77 -256.13 468.2
-11.94 -230.17 418.8
-8.93 -189.25 344.3
-5.74 -135.32 246.2
-3.77 -114.14 207.7
-3.38 -119.44 217.3
-2.73 -115.59 210.3
-2.37 -125.71 228.7
-1.86 -131.49 239.2
-1.25 -131.98 240.1
-0.60 -127.64 232.2
0.00 -109.34 198.9
0.47 -98.74 179.7
0.97 -102.59 186.7
1.32 -93.44 170.0
1.84 -78.03 142.0
3.05 -71.75 130.5
3.50 -74.16 134.9
4.07 -78.49 142.8
4.36 -77.04 140.2
4.58 -74.63 135.8
5.09 -77.03 140.1
5.65 -79.91 145.4
6.03 -79.90 145.4
6.10 -76.05 138.4
9.97 -75.47 137.3
10.98 -80.26 146.0
12.65 -89.38 162.6
14.68 -100.42 182.7
16.53 -109.53 199.3
15.55 -99.91 181.8
16.65 -100.83 183.5
19.73 -116.18 211.4
21.03 -120.47 219.2
30.45 -165.53 301.2
43.81 -232.17 422.4
49.62 -256.58 466.8
52.60 -259.35 471.9
-20.82 -341.14 617.8
-10.23 -198.14 358.8
-8.28 -176.40 319.4
-5.88 -139.19 252.1
-4.47 -118.90 215.3
-4.15 -126.15 228.4
-3.94 -139.69 253.0
-3.36 -143.08 259.1
-2.52 -134.38 243.3
-1.74 -123.27 223.2
-1.15 -122.79 222.3
-0.55 -117.47 212.7
0.00 -102.97 186.5
0.45 -96.20 174.2
1.15 -122.79 222.3
1.82 -129.55 234.6
1.85 -98.61 178.6
1.89 -80.72 146.2
2.10 -74.44 134.8
2.27 -69.12 125.2
2.51 -66.70 120.8
2.74 -64.76 117.3
3.09 -65.73 119.0
4.22 -74.90 135.6
4.78 -78.28 141.8
5.21 -79.24 143.5
5.78 -82.13 148.7
6.17 -82.13 148.7
6.28 -78.74 142.6
6.69 -79.21 143.4
10.34 -78.64 142.4
10.44 -76.70 138.9
12.02 -85.37 154.6
14.11 -96.93 175.5
15.94 -106.07 192.1
15.09 -97.38 176.3
14.77 -92.54 167.6
17.50 -106.50 192.9
18.65 -110.33 199.8
17.32 -99.72 180.6
40.41 -215.20 389.7
60.13 -312.38 565.7
62.25 -315.69 571.7
-20.92 -344.31 620.6
-13.08 -233.27 420.4
-9.90 -192.54 347.0
-7.68 -164.42 296.4
-5.98 -142.12 256.2
-4.81 -128.54 231.7
-3.69 -131.46 236.9
-3.16 -135.35 244.0
-2.38 -127.59 230.0
-1.61 -114.98 207.2
-1.05 -112.07 202.0
-0.48 -101.88 183.6
0.40 -85.87 154.8
1.13 -121.29 218.6
1.92 -137.29 247.5
2.09 -112.06 202.0
2.19 -93.63 168.8
2.41 -85.86 154.8
2.44 -74.70 134.6
2.54 -67.91 122.4
2.84 -67.42 121.5
4.63 -76.14 137.2
5.04 -77.10 139.0
5.34 -76.12 137.2
5.47 -73.21 132.0
5.93 -74.66 134.6
6.65 -79.01 142.4
7.10 -79.98 144.1
7.43 -79.48 143.3
7.47 -76.08 137.1
8.17 -79.47 143.2
9.06 -84.30 151.9
9.45 -84.29 151.9
9.68 -82.83 149.3
10.41 -85.72 154.5
11.24 -89.10 160.6
10.77 -82.31 148.4
9.84 -72.62 130.9
53.31 -278.25 501.5
63.60 -324.07 584.1
-19.57 -323.63 580.6
-6.97 -149.92 269.0
-5.62 -134.35 241.0
-2.33 -125.12 224.5
-1.64 -117.34 210.5
-1.07 -115.39 207.0
-0.49 -105.17 188.7
1.01 -108.57 194.8
1.54 -110.03 197.4
1.95 -104.67 187.8
2.31 -99.32 178.2
2.70 -96.88 173.8
2.88 -88.60 159.0
2.84 -76.43 137.1
3.02 -72.04 129.2
3.37 -72.53 130.1
3.66 -71.55 128.4
4.05 -72.52 130.1
4.94 -75.91 136.2
5.26 -75.42 135.3
5.85 -73.95 132.7
6.27 -74.92 134.4
6.49 -73.45 131.8
7.24 -77.82 139.6
7.89 -80.73 144.8
8.21 -80.24 143.9
8.74 -81.68 146.5
8.85 -79.24 142.2
9.11 -75.34 135.2
9.58 -76.30 136.9
10.12 -77.74 139.5
10.55 -78.22 140.3
12.87 -86.44 155.1
34.28 -184.26 330.6
49.46 -259.36 465.3
58.99 -301.96 541.7
-19.52 -324.29 579.1
-13.92 -250.56 447.4
-9.80 -192.45 343.7
-7.62 -164.62 294.0
-6.13 -147.04 262.6
-5.16 -139.23 248.6
-2.30 -124.10 221.6
-1.55 -111.89 199.8
-0.98 -105.54 188.5
-0.50 -108.47 193.7
0.00 -103.58 185.0
1.48 -106.51 190.2
1.85 -100.16 178.9
2.18 -94.29 168.4
2.54 -91.36 163.1
2.98 -91.85 164.0
3.22 -86.96 155.3
3.07 -73.76 131.7
3.08 -66.43 118.6
3.63 -71.31 127.3
4.31 -77.66 138.7
4.59 -76.19 136.1
4.87 -75.21 134.3
5.32 -76.67 136.9
5.57 -75.20 134.3
5.65 -71.77 128.2
7.37 -79.56 142.1
8.21 -84.43 150.8
8.75 -85.89 153.4
9.14 -85.88 153.4
9.00 -80.99 144.6
8.64 -74.64 133.3
8.81 -73.16 130.7
11.52 -85.81 153.2
13.13 -94.57 168.9
13.50 -94.07 168.0
18.56 -117.89 210.5
19.49 -120.31 214.8
47.65 -251.04 448.3
-19.38 -323.47 575.0
-13.80 -249.48 443.5
-9.84 -194.11 345.0
-7.48 -162.26 288.4
-5.79 -139.71 248.3
-4.83 -130.89 232.7
-2.90 -126.00 224.0
-2.38 -128.95 229.2
-1.65 -119.64 212.7
-0.96 -103.95 184.8
0.47 -101.01 179.5
0.94 -102.48 182.2
1.37 -99.04 176.0
1.72 -93.16 165.6
2.04 -88.74 157.7
2.60 -94.13 167.3
3.24 -100.50 178.6
3.47 -94.13 167.3
3.27 -78.93 140.3
3.34 -72.55 129.0
4.00 -78.92 140.3
4.69 -84.79 150.7
4.99 -83.32 148.1
5.09 -78.90 140.2
5.32 -76.94 136.8
5.78 -78.40 139.4
6.06 -77.41 137.6
6.86 -78.38 139.3
8.17 -88.66 157.6
9.15 -94.53 168.0
9.38 -92.56 164.5
9.39 -88.63 157.5
9.42 -85.19 151.4
9.25 -80.28 142.7
9.44 -78.81 140.1
10.05 -80.75 143.5
14.00 -101.26 180.0
16.66 -109.53 194.7
18.92 -120.75 214.6
19.87 -123.18 218.9
28.00 -155.81 276.9
56.97 -294.34 523.2
-19.06 -319.69 565.6
-12.81 -232.65 411.6
-4.98 -135.78 240.2
-3.90 -141.69 250.7
-3.16 -137.76 243.7
-2.41 -131.37 232.4
-1.74 -126.45 223.7
0.00 -112.68 199.4
0.49 -107.76 190.7
0.95 -103.82 183.7
1.44 -104.80 185.4
1.88 -102.34 181.1
2.21 -96.43 170.6
2.80 -101.84 180.2
3.48 -108.23 191.5
3.66 -99.87 176.7
3.66 -88.55 156.7
3.95 -86.08 152.3
4.24 -84.11 148.8
4.58 -83.12 147.1
5.02 -84.10 148.8
5.27 -82.13 145.3
6.44 -82.60 146.1
6.98 -84.56 149.6
7.16 -82.09 145.3
8.03 -87.49 154.8
9.14 -94.86 167.8
9.37 -92.88 164.3
9.49 -89.92 159.1
9.63 -87.45 154.7
9.52 -83.02 146.9
9.78 -82.03 145.1
10.89 -87.91 155.5
12.55 -97.72 172.9
13.72 -103.11 182.4
13.92 -101.13 178.9
19.28 -123.63 218.7
20.40 -127.04 224.8
21.30 -128.98 228.2
29.90 -167.14 295.7
36.06 -196.51 347.7
44.14 -234.68 415.2
57.00 -295.86 523.5
-18.95 -319.32 562.4
-13.71 -250.24 440.7
-10.26 -204.35 359.9
-5.61 -153.53 270.4
-5.07 -158.47 279.1
-4.26 -155.52 273.9
-3.34 -146.14 257.4
-0.57 -124.92 220.0
0.00 -123.93 218.3
0.53 -115.04 202.6
1.03 -112.57 198.3
1.58 -115.53 203.5
2.12 -116.03 204.3
2.52 -110.59 194.8
3.17 -99.23 174.8
3.66 -100.21 176.5
3.96 -96.26 169.5
4.17 -91.32 160.8
4.36 -86.87 153.0
4.46 -81.44 143.4
4.69 -78.97 139.1
5.05 -78.96 139.1
5.24 -76.49 134.7
5.70 -77.96 137.3
6.51 -83.87 147.7
6.97 -84.85 149.4
9.06 -86.29 152.0
9.94 -90.72 159.8
10.58 -92.68 163.2
10.01 -84.29 148.4
10.27 -83.29 146.7
12.35 -96.58 170.1
14.03 -105.93 186.6
14.24 -103.94 183.1
19.95 -128.49 226.3
21.63 -135.36 238.4
23.78 -144.68 254.8
25.94 -153.51 270.4
28.17 -162.34 285.9
33.02 -185.43 326.6
37.45 -205.06 361.2
42.80 -228.62 402.7
54.96 -286.57 504.7
-20.10 -340.23 596.5
-13.45 -246.64 432.4
-10.52 -210.50 369.1
-6.88 -189.23 331.8
-5.22 -163.97 287.5
-3.62 -132.77 232.8
-3.23 -142.18 249.3
-2.66 -146.15 256.2
-0.59 -129.31 226.7
0.00 -125.84 220.6
0.52 -113.46 198.9
0.99 -108.50 190.2
1.61 -118.41 207.6
2.28 -125.34 219.8
2.62 -115.43 202.4
2.76 -101.06 177.2
2.98 -93.63 164.2
3.35 -92.14 161.5
3.65 -89.16 156.3
3.85 -84.70 148.5
4.19 -83.70 146.8
4.40 -80.73 141.5
4.59 -77.75 136.3
4.95 -77.75 136.3
5.13 -75.26 132.0
6.31 -81.69 143.2
6.72 -82.18 144.1
8.96 -89.57 157.0
9.10 -87.08 152.7
9.55 -87.57 153.5
10.34 -91.02 159.6
9.82 -83.09 145.7
14.01 -106.29 186.4
14.36 -105.29 184.6
23.60 -144.20 252.8
27.98 -166.39 291.7
32.91 -190.55 334.1
34.12 -192.48 337.5
-21.13 -359.28 627.1
-7.65 -187.88 327.9
-7.23 -199.82 348.7
-5.32 -168.01 293.2
-3.22 -142.17 248.1
-2.78 -153.61 268.1
-1.94 -142.68 249.0
-1.23 -136.22 237.7
-0.63 -138.21 241.2
0.00 -133.73 233.4
0.54 -120.31 210.0
0.99 -108.87 190.0
1.56 -114.84 200.4
2.19 -120.80 210.8
2.46 -108.87 190.0
2.74 -100.91 176.1
3.13 -98.92 172.6
3.31 -91.46 159.6
3.98 -87.97 153.5
4.80 -96.42 168.3
4.78 -87.96 153.5
4.71 -80.01 139.6
5.63 -88.94 155.2
6.31 -92.91 162.2
6.31 -81.97 143.1
6.84 -83.95 146.5
7.05 -81.95 143.0
7.51 -82.94 144.8
8.68 -91.37 159.5
9.24 -92.85 162.1
8.68 -83.41 145.6
9.63 -81.89 142.9
18.24 -125.95 219.8
21.39 -143.28 250.1
22.12 -143.75 250.9
23.00 -145.21 253.4
23.65 -145.19 253.4
26.29 -157.05 274.1
31.60 -183.77 320.7
-20.67 -353.02 613.4
-13.99 -258.80 449.7
-8.05 -198.49 344.9
-7.06 -196.01 340.6
-6.15 -195.02 338.8
-5.12 -189.54 329.3
-3.93 -174.58 303.3
-2.94 -163.11 283.4
-2.05 -151.64 263.5
-1.31 -145.66 253.1
-0.59 -131.19 227.9
0.53 -117.72 204.5
1.15 -127.20 221.0
1.62 -120.22 208.9
2.07 -114.73 199.3
2.66 -118.22 205.4
3.36 -124.20 215.8
3.59 -113.72 197.6
3.56 -98.75 171.6
3.94 -97.25 169.0
4.94 -109.72 190.6
5.88 -118.69 206.2
5.85 -108.21 188.0
5.69 -97.23 168.9
6.67 -105.70 183.6
7.21 -106.69 185.4
6.65 -92.22 160.2
6.30 -82.25 142.9
7.00 -81.73 142.0
7.86 -87.21 151.5
9.10 -96.17 167.1
9.63 -97.15 168.8
9.19 -88.67 154.1
18.07 -125.38 217.8
22.18 -149.24 259.3
23.92 -156.18 271.4
25.64 -162.62 282.5
27.09 -167.06 290.3
26.93 -161.56 280.7
28.93 -168.99 293.6
-17.42 -323.72 559.9
-12.29 -249.18 431.0
-6.84 -190.67 329.8
-5.97 -190.17 328.9
-5.63 -209.20 361.8
-4.88 -217.71 376.6
-3.61 -201.20 348.0
-2.48 -184.69 319.4
-1.49 -166.67 288.3
0.52 -115.62 200.0
1.14 -127.13 219.9
1.62 -120.62 208.6
2.12 -118.12 204.3
2.83 -126.12 218.1
3.46 -128.62 222.5
3.55 -113.10 195.6
3.79 -105.59 182.6
4.54 -112.59 194.7
5.14 -114.59 198.2
5.60 -113.58 196.5
6.14 -114.08 197.3
6.56 -112.57 194.7
7.26 -115.56 199.9
7.40 -110.05 190.4
7.18 -100.04 173.0
7.21 -94.53 163.5
7.76 -86.50 149.6
8.85 -93.99 162.6
10.60 -107.48 185.9
11.34 -109.97 190.2
10.87 -100.96 174.6
14.87 -118.39 204.8
16.69 -128.36 222.0
18.54 -137.83 238.4
20.06 -144.30 249.6
19.63 -136.79 236.6
23.13 -151.72 262.4
26.31 -167.66 290.0
30.44 -188.58 326.2
33.10 -199.52 345.1
31.70 -186.02 321.7
32.70 -186.98 323.4
47.49 -252.14 436.1
-19.42 -362.46 624.1
-5.38 -200.86 345.9
-4.98 -222.96 383.9
-3.91 -218.95 377.0
-2.65 -197.86 340.7
-1.55 -173.76 299.2
-0.73 -164.22 282.8
0.00 -153.67 264.6
0.65 -145.13 249.9
1.29 -144.13 248.2
1.75 -130.57 224.8
2.20 -123.03 211.9
2.75 -123.03 211.9
3.16 -118.01 203.2
3.14 -100.43 172.9
4.46 -110.96 191.1
5.56 -124.51 214.4
5.70 -115.97 199.7
5.81 -108.44 186.7
6.47 -111.44 191.9
7.47 -119.46 205.7
7.66 -114.44 197.1
7.42 -103.89 178.9
8.19 -107.89 185.8
8.35 -103.87 178.9
8.38 -98.84 170.2
9.05 -101.34 174.5
9.50 -101.33 174.5
10.74 -109.35 188.3
11.59 -112.84 194.3
13.62 -117.32 202.0
14.68 -121.81 209.8
15.79 -126.31 217.5
17.78 -137.31 236.4
19.60 -146.31 251.9
20.80 -150.30 258.8
29.77 -185.21 318.9
32.24 -195.19 336.1
48.47 -258.49 445.1
-19.05 -357.12 612.2
-7.55 -242.84 416.3
-5.75 -215.64 369.7
-4.34 -195.49 335.1
-3.48 -195.49 335.1
-2.34 -175.34 300.6
0.00 -137.05 234.9
0.61 -137.05 234.9
1.29 -145.11 248.8
1.85 -138.56 237.5
2.21 -124.45 213.3
2.65 -119.41 204.7
3.02 -113.36 194.3
2.87 -92.20 158.1
4.82 -120.40 206.4
6.11 -137.52 235.8
6.38 -130.46 223.7
6.15 -115.34 197.7
6.46 -111.81 191.7
7.27 -116.84 200.3
10.33 -122.33 209.7
10.96 -123.32 211.4
11.32 -121.30 207.9
11.61 -118.77 203.6
11.52 -112.72 193.2
12.30 -110.68 189.7
13.78 -119.22 204.4
14.77 -118.68 203.5
16.66 -129.22 221.5
18.43 -138.25 237.0
-7.84 -253.24 432.2
-3.43 -193.61 330.4
-2.48 -187.05 319.2
-1.51 -170.87 291.6
0.00 -122.34 208.8
2.20 -124.36 212.2
2.59 -117.28 200.2
2.87 -108.18 184.6
3.52 -113.73 194.1
4.83 -136.47 232.9
5.84 -146.58 250.2
6.42 -145.05 247.6
6.74 -138.48 236.3
6.44 -121.29 207.0
7.18 -124.82 213.0
8.51 -137.44 234.6
8.12 -122.27 208.7
7.44 -105.08 179.3
12.11 -136.86 233.6
13.00 -139.88 238.7
13.81 -141.88 242.2
12.95 -127.23 217.1
17.07 -137.74 235.1
18.51 -144.28 246.2
19.82 -149.30 254.8
22.55 -164.41 280.6
24.92 -175.98 300.4
25.55 -174.95 298.6
24.65 -163.83 279.6
-4.93 -223.66 380.0
-3.80 -215.55 366.3
-2.69 -203.38 345.6
-1.61 -182.59 310.3
0.00 -142.52 242.2
2.60 -147.59 250.8
3.17 -144.04 244.7
3.32 -125.77 213.7
3.77 -122.22 207.7
5.27 -149.60 254.2
6.53 -164.81 280.0
7.06 -160.24 272.3
7.17 -148.06 251.6
7.93 -150.08 255.0
10.02 -174.91 297.2
10.94 -177.43 301.5
9.75 -147.51 250.7
9.57 -135.84 230.8
9.87 -131.78 223.9
13.35 -151.50 257.4
14.48 -156.55 266.0
15.17 -156.54 266.0
13.96 -137.78 234.1
