ply
format ascii 1.0
element vertex 2094
property float x
property float y
property float z
end_header
823.68 1384.74 2302.2
830.01 1385.35 2303.2
856.20 1360.53 2262.0
891.55 1388.19 2308.0
920.34 1423.45 2366.6
920.76 1414.68 2352.0
902.56 1377.60 2290.3
971.96 1366.64 2272.1
982.69 1373.40 2283.4
984.07 1367.09 2272.9
1017.81 1364.93 2269.3
1046.24 1363.64 2267.1
1078.85 1375.24 2286.4
1091.47 1383.72 2300.5
1091.29 1375.97 2287.6
1118.07 1379.74 2293.9
1117.32 1371.52 2280.2
-1653.45 1312.54 2191.6
-1653.79 1326.48 2214.9
-1642.18 1321.76 2207.0
-1634.20 1329.23 2219.5
-1617.83 1320.56 2205.0
-1612.80 1325.82 2213.8
-1607.61 1326.28 2214.6
-1558.07 1323.21 2209.4
-1554.38 1324.95 2212.4
-1553.26 1328.90 2218.9
-1562.37 1341.67 2240.3
-1538.63 1326.21 2214.5
-1519.44 1319.52 2203.3
-1531.96 1335.41 2229.8
-1526.65 1335.82 2230.5
-1484.03 1323.60 2210.1
-1514.56 1356.06 2264.3
-1501.21 1349.33 2253.1
-1466.12 1322.94 2209.0
-1447.61 1316.53 2198.3
-1447.70 1321.81 2207.1
-1450.93 1351.47 2256.6
-1486.88 1390.56 2321.9
-1468.33 1378.80 2302.3
-1423.54 1342.19 2241.1
-1399.97 1325.38 2213.1
-1413.12 1343.34 2243.1
-1424.26 1359.52 2270.1
-1405.04 1346.74 2248.7
-1385.91 1333.94 2227.4
-1388.92 1342.43 2241.5
-1390.00 1349.11 2252.7
-1363.98 1329.45 2219.9
-1349.71 1321.11 2205.9
-1355.41 1332.34 2224.7
-1340.72 1323.53 2210.0
-1338.55 1332.78 2225.4
-1363.24 1363.24 2276.3
-1368.13 1374.08 2294.4
-1363.86 1375.77 2297.2
-1353.25 1371.05 2289.3
-1320.12 1343.39 2243.1
-1323.57 1352.85 2258.9
-1349.32 1385.30 2313.1
-1349.87 1392.05 2324.4
-1334.37 1382.24 2308.0
-1306.09 1359.04 2269.3
-1296.95 1355.63 2263.6
-1289.14 1353.59 2260.2
-1264.26 1333.53 2226.7
-1253.92 1328.69 2218.6
-1263.60 1345.12 2246.0
-1268.83 1356.94 2265.8
-1273.54 1368.32 2284.8
-1286.33 1388.52 2318.5
-1268.15 1375.32 2296.5
-1228.74 1338.86 2235.6
-1210.40 1325.13 2212.6
-1210.34 1331.38 2223.1
-1212.77 1340.43 2238.2
-1207.16 1340.64 2238.5
-1215.33 1356.24 2264.6
-1220.06 1368.13 2284.4
-1201.47 1353.85 2260.6
-1202.40 1361.54 2273.4
-1210.26 1377.19 2299.6
-1214.73 1389.12 2319.5
-1222.37 1404.82 2345.7
-1224.21 1413.96 2361.0
-1208.16 1402.44 2341.7
-1174.06 1369.74 2287.1
-1157.05 1356.74 2265.4
-1179.29 1389.88 2320.8
-1206.86 1429.66 2387.2
-1187.38 1413.84 2360.8
-1147.10 1372.96 2292.5
-1115.37 1341.93 2240.7
-1107.72 1339.70 2237.0
-1125.77 1368.69 2285.4
-1127.71 1378.31 2301.4
-1116.84 1372.29 2291.4
-1108.32 1369.11 2286.1
-1105.94 1373.51 2293.4
-1101.24 1375.06 2296.0
-1085.16 1362.35 2274.8
-1086.13 1371.02 2289.3
-1097.17 1392.56 2325.2
-1102.44 1406.98 2349.3
-1090.50 1399.48 2336.8
-1049.77 1354.73 2262.1
-1028.13 1334.26 2227.9
-1038.52 1355.36 2263.1
-1037.44 1361.65 2273.6
-1017.46 1343.04 2242.6
-1019.62 1353.63 2260.2
-1043.96 1393.96 2327.6
-1043.71 1401.72 2340.5
-1018.14 1375.39 2296.6
-1009.75 1372.07 2291.0
-1005.61 1374.53 2295.1
-987.43 1357.72 2267.1
-981.23 1357.27 2266.3
-999.61 1391.02 2322.7
-1011.19 1415.66 2363.8
-981.79 1382.89 2309.1
-949.92 1346.20 2247.8
-959.34 1367.95 2284.1
-979.71 1405.68 2347.1
-963.25 1390.69 2322.1
-935.56 1359.21 2269.6
-947.57 1385.37 2313.2
-966.95 1422.71 2375.6
-974.57 1443.11 2409.6
-970.62 1446.53 2415.4
-942.33 1413.49 2360.2
-929.12 1402.78 2342.3
-929.11 1412.01 2357.7
-920.44 1408.09 2351.2
-902.61 1390.02 2321.0
-891.84 1382.66 2308.7
-913.02 1425.05 2379.5
-921.44 1447.97 2417.8
-900.02 1424.00 2377.7
-876.63 1396.56 2331.9
-882.74 1416.06 2364.5
-893.54 1443.41 2410.2
-880.63 1432.58 2392.1
-866.01 1418.79 2369.0
-856.55 1413.31 2359.9
-847.13 1407.82 2350.7
-837.74 1402.31 2341.5
-831.61 1402.20 2341.3
-831.55 1412.41 2358.4
-827.96 1416.73 2365.6
-814.04 1403.31 2343.2
-812.43 1411.06 2356.1
-820.33 1435.58 2397.1
-814.32 1435.94 2397.7
-806.09 1432.36 2391.7
-792.91 1419.87 2370.8
-764.50 1379.69 2303.7
-744.02 1353.30 2259.7
-751.01 1376.84 2299.0
-758.87 1402.39 2341.6
-749.51 1396.26 2331.4
-746.52 1402.00 2341.0
-755.27 1430.07 2387.9
-741.71 1415.99 2364.4
-711.49 1369.61 2286.9
-702.11 1362.92 2275.7
-706.49 1383.05 2309.4
-700.13 1382.31 2308.1
-697.27 1388.53 2318.5
-709.47 1425.11 2379.6
-715.23 1449.28 2419.9
-709.33 1450.04 2421.2
-702.94 1449.81 2420.8
-695.10 1446.57 2415.4
-685.40 1439.33 2403.3
-680.22 1441.56 2407.1
-672.22 1437.80 2400.8
-650.12 1403.53 2343.6
-639.32 1393.23 2326.4
-634.51 1395.92 2330.9
-627.87 1394.61 2328.7
-639.56 1434.35 2395.0
-626.87 1433.72 2394.0
-617.70 1426.88 2382.5
-615.46 1436.08 2397.9
-602.29 1419.68 2370.5
-592.20 1410.29 2354.8
-596.38 1435.05 2396.2
-585.06 1422.63 2375.4
-564.22 1386.55 2315.2
-565.36 1404.27 2344.8
-575.56 1445.16 2413.1
-570.74 1448.81 2419.2
-554.90 1424.24 2378.1
-547.61 1421.32 2373.3
-542.07 1422.93 2375.9
-529.67 1406.37 2348.3
-520.98 1399.38 2336.6
-519.59 1412.07 2357.8
-519.20 1427.79 2384.1
-515.58 1434.93 2396.0
-506.88 1427.91 2384.3
-493.27 1406.73 2348.9
-478.78 1382.49 2308.4
-469.00 1371.37 2289.9
-471.44 1396.19 2331.3
-473.00 1418.99 2369.4
-469.36 1426.61 2382.1
-466.97 1438.27 2401.6
-459.77 1435.24 2396.5
-449.07 1421.04 2372.8
-436.59 1400.74 2338.9
-427.56 1391.07 2322.8
-420.14 1386.47 2315.1
-421.11 1409.79 2354.0
-422.62 1435.66 2397.2
-413.44 1425.45 2380.2
-407.11 1424.90 2379.2
-402.50 1430.43 2388.5
-395.02 1425.79 2380.7
-388.97 1426.23 2381.5
-386.74 1440.92 2406.0
-382.36 1447.97 2417.8
-370.65 1427.00 2382.7
-362.37 1418.75 2369.0
-361.83 1441.07 2406.2
-358.83 1454.22 2428.2
-346.21 1428.10 2384.6
-335.50 1409.11 2352.9
-335.21 1433.97 2394.4
-333.66 1454.25 2428.2
-326.18 1449.00 2419.5
-318.53 1442.73 2409.0
-311.25 1437.98 2401.1
-306.08 1442.93 2409.3
-301.07 1448.89 2419.3
-295.80 1453.82 2427.5
-283.14 1453.46 2426.9
-271.84 1427.18 2383.1
-266.01 1429.02 2386.1
-255.50 1405.28 2346.5
-240.48 1354.91 2262.4
-236.79 1367.46 2283.3
-237.05 1404.07 2344.5
-234.64 1426.35 2381.7
-231.54 1445.56 2413.7
-224.12 1438.13 2401.3
-217.24 1433.77 2394.1
-213.48 1450.41 2421.8
-201.98 1458.06 2434.6
-192.81 1436.76 2399.0
-188.22 1449.27 2419.9
-182.87 1456.66 2432.3
-170.37 1405.59 2347.0
-161.61 1382.70 2308.8
-158.48 1408.01 2351.0
-153.23 1415.89 2364.2
-149.04 1434.53 2395.3
-138.61 1455.38 2430.1
-129.80 1427.82 2384.1
-125.28 1446.96 2416.1
-107.08 1455.05 2429.6
-99.69 1439.26 2403.2
-91.96 1416.26 2364.8
-84.63 1396.33 2331.5
-78.96 1403.10 2342.8
-72.39 1393.43 2326.7
-65.40 1373.48 2293.4
-61.20 1413.61 2360.4
-55.54 1425.49 2380.2
-48.30 1394.73 2328.9
-42.27 1394.78 2329.0
-36.47 1404.08 2344.5
-30.56 1411.82 2357.4
-24.63 1422.13 2374.6
-18.63 1434.48 2395.2
-12.58 1453.00 2426.2
-6.33 1461.23 2439.9
0.00 1442.22 2408.2
6.12 1413.96 2361.0
12.06 1393.40 2326.6
17.93 1380.54 2305.2
24.36 1406.71 2348.9
31.34 1447.78 2417.4
37.64 1449.29 2420.0
43.32 1429.72 2387.3
48.62 1403.98 2344.3
53.84 1381.83 2307.3
60.22 1391.01 2322.7
67.92 1426.38 2381.7
74.41 1432.46 2391.9
80.49 1430.32 2388.3
87.55 1444.60 2412.1
93.30 1436.80 2399.1
99.76 1440.28 2404.9
105.87 1438.62 2402.2
108.53 1392.81 2325.7
112.14 1363.42 2276.6
119.37 1378.69 2302.1
128.31 1411.40 2356.7
135.09 1418.43 2368.4
139.22 1398.26 2334.8
144.88 1394.51 2328.5
151.74 1402.03 2341.1
155.59 1382.37 2308.2
160.72 1375.01 2295.9
168.88 1393.28 2326.4
173.99 1385.91 2314.1
182.09 1402.11 2341.2
192.19 1432.14 2391.3
198.29 1431.41 2390.1
204.38 1430.67 2388.9
210.69 1431.45 2390.2
215.61 1423.02 2376.1
223.96 1437.11 2399.6
234.33 1462.97 2442.8
241.54 1468.33 2451.8
245.00 1451.16 2423.1
244.14 1409.94 2354.3
247.11 1392.26 2324.7
254.11 1397.60 2333.7
260.96 1401.91 2340.9
273.40 1435.36 2396.7
281.65 1445.79 2414.1
282.96 1420.93 2372.6
285.61 1403.74 2343.9
288.01 1386.05 2314.4
297.52 1402.57 2342.0
310.59 1434.92 2396.0
313.00 1417.72 2367.2
315.50 1401.54 2340.2
326.05 1421.08 2372.9
330.92 1415.61 2363.7
329.07 1382.08 2307.7
333.72 1376.61 2298.6
345.12 1398.66 2335.4
355.43 1415.59 2363.7
363.02 1421.30 2373.2
367.08 1413.25 2359.8
363.00 1374.65 2295.3
366.11 1364.06 2277.7
383.14 1404.86 2345.8
392.91 1418.16 2368.0
397.64 1413.14 2359.6
411.76 1441.16 2406.4
421.70 1453.91 2427.7
422.17 1434.13 2394.7
424.29 1420.45 2371.8
428.60 1414.39 2361.7
434.73 1414.42 2361.7
444.34 1425.60 2380.4
449.72 1423.07 2376.2
450.03 1404.82 2345.7
452.33 1393.17 2326.3
452.86 1376.45 2298.3
457.30 1371.90 2290.7
471.27 1395.68 2330.5
483.54 1413.88 2360.8
498.40 1439.14 2403.0
509.76 1453.75 2427.4
503.11 1417.30 2366.5
501.24 1395.01 2329.3
505.06 1388.90 2319.1
499.53 1357.55 2266.8
518.65 1377.11 2299.4
533.42 1400.24 2338.1
542.75 1408.72 2352.2
546.07 1401.57 2340.3
550.51 1397.44 2333.4
556.32 1396.84 2332.4
563.94 1400.75 2338.9
572.41 1406.67 2348.8
571.83 1390.45 2321.7
574.67 1382.79 2308.9
590.09 1405.26 2346.5
596.75 1406.62 2348.7
583.20 1360.81 2272.2
608.07 1363.73 2277.1
633.96 1408.12 2351.2
629.28 1384.42 2311.6
646.06 1381.85 2307.4
658.07 1394.63 2328.7
665.19 1396.91 2332.5
671.62 1397.69 2333.8
672.00 1385.99 2314.3
677.88 1385.76 2313.9
676.39 1370.59 2288.6
693.27 1380.57 2305.2
698.62 1379.33 2303.1
697.86 1366.15 2281.1
705.18 1368.88 2285.7
720.71 1364.61 2278.6
741.77 1393.08 2326.1
740.20 1378.92 2302.5
740.92 1369.22 2286.3
742.64 1361.51 2273.4
771.64 1371.15 2289.5
786.35 1386.62 2315.3
792.44 1386.77 2315.6
809.88 1406.63 2348.7
822.33 1417.59 2367.0
820.48 1403.93 2344.2
817.65 1388.81 2319.0
818.78 1380.58 2305.2
822.78 1377.26 2299.7
820.84 1364.13 2277.8
864.50 1367.80 2283.9
902.61 1390.02 2321.0
919.16 1406.14 2347.9
900.93 1369.17 2286.2
934.64 1366.46 2281.7
953.57 1385.37 2313.2
945.48 1365.04 2279.3
1022.48 1389.38 2319.9
1033.78 1396.52 2331.8
-1675.99 1324.67 2221.5
-1646.21 1319.26 2212.4
-1639.98 1318.86 2211.8
-1551.99 1322.06 2217.1
-1553.41 1328.19 2227.4
-1515.47 1315.32 2205.8
-1497.91 1319.99 2213.7
-1473.19 1318.42 2211.0
-1483.82 1343.61 2253.3
-1478.89 1344.45 2254.7
-1460.75 1333.22 2235.8
-1446.57 1325.55 2223.0
-1432.45 1317.85 2210.1
-1439.63 1335.14 2239.1
-1458.79 1358.39 2278.0
-1423.98 1331.36 2232.7
-1407.24 1331.95 2233.7
-1419.35 1348.97 2262.3
-1396.83 1333.08 2235.6
-1375.12 1323.34 2219.3
-1375.32 1329.09 2228.9
-1358.66 1318.53 2211.2
-1358.02 1329.12 2229.0
-1343.77 1320.80 2215.0
-1346.61 1329.28 2229.2
-1372.35 1360.52 2281.6
-1376.36 1370.40 2298.2
-1359.34 1359.34 2279.6
-1349.65 1355.55 2273.3
-1332.74 1344.44 2254.6
-1308.69 1325.99 2223.7
-1321.18 1344.56 2254.9
-1348.76 1378.73 2312.2
-1351.99 1388.21 2328.1
-1343.15 1385.31 2323.2
-1322.80 1370.47 2298.3
-1307.85 1361.11 2282.6
-1292.96 1351.74 2266.9
-1267.62 1331.29 2232.6
-1256.39 1325.54 2223.0
-1267.38 1343.30 2252.7
-1274.77 1357.40 2276.4
-1272.56 1361.35 2283.0
-1278.07 1373.62 2303.6
-1273.19 1374.81 2305.6
-1246.96 1352.84 2268.7
-1236.19 1347.51 2259.8
-1243.25 1361.65 2283.5
-1232.06 1355.85 2273.8
-1212.07 1340.27 2247.7
-1206.01 1340.02 2247.2
-1196.62 1336.03 2240.5
-1195.96 1341.81 2250.2
-1214.29 1369.05 2295.9
-1201.52 1361.33 2283.0
-1185.53 1349.86 2263.7
-1209.24 1383.70 2320.5
-1226.59 1410.58 2365.6
-1222.28 1412.69 2369.1
-1197.37 1390.89 2332.5
-1170.61 1366.70 2292.0
-1184.82 1390.35 2331.6
-1187.70 1400.88 2349.3
-1142.52 1354.53 2271.6
-1127.68 1343.87 2253.7
-1121.95 1344.01 2253.9
-1117.40 1345.56 2256.5
-1138.16 1377.77 2310.5
-1132.68 1378.39 2311.6
-1114.84 1363.90 2287.3
-1126.70 1385.78 2324.0
-1143.37 1413.85 2371.0
-1132.41 1407.86 2361.0
-1108.97 1386.21 2324.7
-1100.03 1382.55 2318.6
-1100.13 1390.27 2331.5
-1100.16 1397.99 2344.5
-1083.76 1384.81 2322.4
-1064.87 1368.27 2294.6
-1061.94 1372.17 2301.2
-1068.88 1388.94 2329.3
-1064.74 1391.43 2333.4
-1039.52 1366.23 2291.2
-1036.89 1370.60 2298.5
-1045.72 1390.27 2331.5
-1029.72 1376.95 2309.2
-1010.26 1358.83 2278.8
-1008.64 1364.63 2288.5
-1031.27 1403.50 2353.7
-1038.18 1421.32 2383.6
-1007.31 1387.31 2326.5
-1001.66 1387.84 2327.4
-1020.48 1422.49 2385.5
-996.85 1398.02 2344.5
-956.68 1349.91 2263.8
-957.93 1360.03 2280.8
-983.41 1404.86 2356.0
-972.95 1398.62 2345.5
-942.52 1363.39 2286.4
-952.18 1386.09 2324.5
-964.30 1412.67 2369.1
-964.40 1421.88 2384.5
-970.95 1440.77 2416.2
-951.73 1421.41 2383.7
-932.65 1402.02 2351.2
-927.50 1403.45 2353.6
-908.95 1384.50 2321.8
-880.73 1350.45 2264.7
-881.42 1360.59 2281.7
-914.59 1421.32 2383.6
-920.52 1440.27 2415.4
-896.62 1412.48 2368.8
-872.93 1384.65 2322.1
-877.85 1402.13 2351.4
-895.08 1439.63 2414.3
-887.88 1438.12 2411.7
-863.32 1408.25 2361.7
-842.86 1384.70 2322.2
-843.87 1396.33 2341.7
-845.08 1408.47 2362.0
-839.77 1409.84 2364.3
-839.38 1419.53 2380.6
-838.04 1427.77 2394.4
-826.91 1419.31 2380.2
-809.59 1400.04 2347.9
-802.58 1398.43 2345.2
-803.70 1411.07 2366.4
-802.21 1419.30 2380.2
-789.06 1406.85 2359.3
-760.65 1366.79 2292.1
-737.73 1336.05 2240.6
-742.62 1355.57 2273.3
-752.97 1385.46 2323.4
-745.78 1383.29 2319.8
-728.56 1362.35 2284.7
-723.57 1364.11 2287.6
-733.65 1394.54 2338.7
-725.93 1391.36 2333.3
-710.29 1372.83 2302.3
-708.26 1380.51 2315.1
-704.91 1385.73 2323.9
-704.77 1397.39 2343.4
-709.24 1418.48 2378.8
-707.63 1427.68 2394.2
-704.23 1433.40 2403.8
-700.06 1437.63 2410.9
-700.65 1451.80 2434.7
-677.65 1429.90 2398.0
-653.77 1392.29 2334.9
-650.13 1397.47 2343.6
-657.70 1427.08 2393.2
-647.49 1418.32 2378.5
-635.10 1404.54 2355.4
-641.37 1432.19 2401.8
-639.88 1442.87 2419.7
-622.06 1416.57 2375.6
-611.41 1406.25 2358.3
-617.42 1434.42 2405.5
-612.11 1436.59 2409.2
-597.70 1417.23 2376.7
-597.66 1431.90 2401.3
-597.91 1447.58 2427.6
-588.20 1439.21 2413.6
-574.49 1420.79 2382.7
-569.97 1424.93 2389.6
-560.46 1448.37 2428.9
-548.82 1434.41 2405.5
-532.54 1407.86 2361.0
-520.80 1392.85 2335.8
-514.03 1390.90 2332.6
-508.37 1391.97 2334.4
-510.88 1415.69 2374.1
-508.34 1425.82 2391.1
-495.59 1407.23 2359.9
-482.29 1386.60 2325.3
-475.93 1385.61 2323.7
-481.55 1419.94 2381.3
-460.45 1431.12 2400.0
-453.91 1430.11 2398.3
-445.79 1424.04 2388.1
-434.59 1407.84 2361.0
-424.62 1395.16 2339.7
-413.83 1379.43 2313.3
-404.23 1367.23 2292.9
-402.10 1380.34 2314.9
-403.06 1404.61 2355.5
-401.95 1422.29 2385.2
-398.43 1431.86 2401.3
-389.82 1423.17 2386.7
-385.12 1428.68 2395.9
-384.00 1447.88 2428.1
-375.70 1440.19 2415.2
-366.03 1426.89 2392.9
-364.28 1444.57 2422.6
-358.98 1448.53 2429.2
-344.12 1413.36 2370.2
-338.55 1415.77 2374.3
-334.97 1453.65 2437.8
-321.26 1420.95 2383.0
-314.37 1417.75 2377.6
-307.73 1415.56 2373.9
-303.38 1424.05 2388.2
-299.60 1435.59 2407.5
-294.78 1442.54 2419.2
-290.61 1453.06 2436.8
-285.75 1460.52 2449.3
-277.32 1449.63 2431.1
-268.88 1438.21 2411.9
-255.89 1401.29 2350.0
-242.66 1361.28 2282.9
-241.05 1386.04 2324.4
-239.05 1409.78 2364.2
-234.57 1419.74 2380.9
-230.98 1435.83 2407.9
-223.10 1425.36 2390.4
-214.07 1406.72 2359.1
-208.36 1409.51 2363.8
-202.93 1414.34 2371.9
-194.68 1399.24 2346.6
-188.55 1398.95 2346.1
-186.83 1432.38 2402.1
-182.82 1449.96 2431.6
-171.44 1408.25 2361.7
-159.76 1360.90 2282.3
-153.75 1360.05 2280.8
-150.52 1384.77 2322.3
-148.25 1420.74 2382.6
-145.42 1454.15 2438.6
-138.13 1444.08 2421.8
-130.51 1429.40 2397.1
-127.11 1461.78 2451.4
-120.77 1461.92 2451.7
-111.94 1430.32 2398.7
-106.90 1446.31 2425.5
-101.33 1456.67 2442.9
-93.44 1432.72 2402.7
-86.09 1414.40 2372.0
-80.30 1420.63 2382.4
-73.62 1410.99 2366.3
-65.53 1370.12 2297.7
-60.31 1387.08 2326.2
-55.46 1417.36 2376.9
-48.82 1403.59 2353.9
-43.05 1414.40 2372.0
-37.41 1433.91 2404.7
-31.37 1443.16 2420.2
-25.29 1454.46 2439.2
-18.73 1436.05 2408.3
-12.38 1423.78 2387.7
-6.29 1445.81 2424.6
0.00 1440.69 2416.1
6.17 1418.67 2379.1
12.21 1404.31 2355.1
18.17 1393.03 2336.1
24.71 1420.66 2382.5
31.74 1460.06 2448.6
38.03 1457.97 2445.1
43.61 1432.84 2402.9
48.71 1400.52 2348.7
54.00 1379.98 2314.3
60.51 1391.69 2333.9
67.49 1411.08 2366.4
73.11 1401.27 2350.0
79.52 1406.81 2359.3
86.90 1427.71 2394.3
93.24 1429.65 2397.6
100.37 1442.85 2419.7
107.17 1449.90 2431.5
110.62 1413.44 2370.4
114.13 1381.58 2316.9
121.24 1394.24 2338.2
130.09 1424.79 2389.4
136.66 1428.73 2396.0
141.48 1414.77 2372.6
148.14 1419.72 2380.9
154.46 1421.08 2383.2
157.68 1394.82 2339.1
160.06 1363.45 2286.5
165.15 1356.62 2275.1
171.61 1361.03 2282.5
181.17 1388.94 2329.3
191.45 1420.41 2382.1
197.52 1419.68 2380.8
201.32 1403.11 2353.0
205.04 1387.04 2326.1
215.23 1414.38 2371.9
229.09 1463.65 2454.6
241.56 1462.10 2452.0
247.79 1461.31 2450.6
250.19 1438.58 2412.5
249.48 1399.53 2347.0
252.63 1383.44 2320.1
258.30 1381.62 2317.0
269.62 1409.36 2363.5
277.78 1419.75 2381.0
279.30 1396.51 2342.0
288.95 1414.02 2371.3
298.86 1432.02 2401.5
294.27 1381.28 2316.4
305.23 1376.53 2308.5
317.92 1406.20 2358.2
325.60 1412.96 2369.6
327.23 1393.78 2337.4
330.77 1383.24 2319.7
340.90 1400.14 2348.1
344.88 1391.63 2333.8
347.63 1378.54 2311.8
357.95 1395.41 2340.1
364.97 1399.07 2346.3
369.33 1392.56 2335.4
381.84 1416.50 2375.5
388.02 1416.58 2375.6
386.16 1387.75 2327.3
391.06 1383.76 2320.6
405.39 1412.71 2369.1
421.73 1447.72 2427.8
428.78 1450.28 2432.1
427.95 1426.51 2392.3
428.47 1407.81 2360.9
432.88 1402.28 2351.6
440.88 1408.37 2361.9
456.31 1437.70 2411.0
467.44 1452.85 2436.5
471.44 1445.76 2424.6
474.22 1435.14 2406.8
469.47 1402.30 2351.7
473.16 1395.22 2339.8
484.59 1410.83 2366.0
498.25 1432.48 2402.3
501.62 1424.37 2388.7
486.96 1365.87 2290.6
491.25 1361.30 2282.9
502.12 1374.85 2305.7
502.13 1358.69 2278.6
511.02 1366.69 2292.0
526.07 1390.76 2332.3
540.74 1413.30 2370.1
549.77 1420.74 2382.6
552.17 1411.10 2366.4
552.50 1396.43 2341.8
553.91 1384.79 2322.3
565.16 1397.72 2344.0
577.13 1412.14 2368.2
568.73 1376.93 2309.1
580.39 1376.18 2307.9
588.23 1380.55 2315.2
583.62 1355.90 2273.9
590.76 1358.76 2278.7
601.65 1370.11 2297.7
603.33 1360.46 2281.5
608.06 1357.81 2277.1
624.27 1380.59 2315.3
633.15 1386.90 2325.9
632.20 1371.76 2300.5
642.02 1380.04 2314.3
663.59 1413.20 2370.0
677.65 1429.90 2398.0
686.13 1434.64 2405.9
686.02 1421.47 2383.8
680.22 1396.88 2342.6
683.49 1391.18 2333.0
679.09 1370.09 2297.7
694.07 1364.42 2288.2
713.09 1389.93 2330.9
720.28 1392.13 2334.6
713.54 1367.61 2293.5
741.24 1386.06 2324.4
746.57 1384.78 2322.3
739.02 1359.81 2280.4
765.04 1364.02 2287.5
787.20 1392.73 2335.6
800.90 1406.16 2358.2
805.12 1402.86 2352.6
820.67 1419.20 2380.0
831.19 1426.68 2392.6
834.01 1420.90 2382.9
836.77 1415.12 2373.2
814.68 1367.71 2293.7
825.83 1366.49 2291.6
860.12 1413.05 2369.7
850.14 1386.75 2325.6
920.74 1402.46 2351.9
924.29 1398.60 2345.5
938.24 1365.80 2290.5
970.89 1404.43 2355.3
978.32 1406.34 2358.5
970.58 1386.54 2325.3
967.09 1373.04 2302.6
-1706.65 1324.83 2231.5
-1692.74 1318.50 2220.8
-1663.78 1318.36 2220.6
-1660.12 1329.26 2238.9
-1659.74 1333.62 2246.3
-1609.80 1321.31 2225.5
-1597.76 1330.50 2241.0
-1597.70 1335.31 2249.1
-1592.93 1336.20 2250.6
-1572.08 1323.55 2229.3
-1535.45 1316.92 2218.1
-1545.98 1330.94 2241.8
-1551.34 1340.59 2258.0
-1539.39 1335.30 2249.1
-1527.97 1330.44 2240.9
-1530.70 1337.90 2253.5
-1526.34 1339.20 2255.7
-1502.91 1323.71 2229.6
-1489.24 1321.85 2226.4
-1489.87 1327.55 2236.0
-1489.96 1332.82 2244.9
-1521.64 1366.49 2301.6
-1503.82 1355.81 2283.6
-1459.56 1326.35 2234.0
-1471.27 1342.31 2260.9
-1474.10 1350.28 2274.3
-1472.02 1353.79 2280.2
-1460.72 1348.81 2271.9
-1442.70 1337.56 2252.9
-1421.86 1323.60 2229.4
-1410.70 1318.57 2220.9
-1413.43 1326.54 2234.3
-1434.67 1352.02 2277.3
-1436.27 1359.12 2289.2
-1403.27 1333.40 2245.9
-1391.20 1327.44 2235.9
-1405.03 1346.24 2267.5
-1399.04 1346.13 2267.3
-1373.89 1327.51 2236.0
-1342.29 1319.25 2222.1
-1370.37 1352.65 2278.3
-1375.77 1363.86 2297.2
-1356.46 1350.56 2274.8
-1343.60 1343.60 2263.1
-1344.83 1350.73 2275.1
-1337.42 1349.21 2272.5
-1330.48 1348.14 2270.7
-1338.33 1362.12 2294.3
-1332.68 1362.42 2294.8
-1315.44 1350.84 2275.3
-1313.81 1355.24 2282.7
-1317.45 1365.14 2299.4
-1306.92 1360.39 2291.4
-1285.02 1343.69 2263.2
-1276.34 1340.74 2258.3
-1289.89 1361.22 2292.8
-1285.50 1362.87 2295.5
-1271.15 1353.92 2280.5
-1278.82 1368.46 2305.0
-1273.95 1369.65 2307.0
-1272.05 1374.06 2314.4
-1285.45 1395.10 2349.8
-1264.76 1379.19 2323.0
-1226.45 1343.82 2263.4
-1213.63 1336.16 2250.6
-1216.37 1345.64 2266.5
-1224.87 1361.63 2293.4
-1241.15 1386.46 2335.3
-1228.27 1378.79 2322.4
-1182.46 1333.91 2246.8
-1182.99 1347.78 2270.1
-1202.51 1376.88 2319.1
-1198.30 1378.95 2322.6
-1195.69 1382.89 2329.3
-1190.23 1383.56 2330.4
-1172.34 1369.73 2307.1
-1144.59 1344.16 2264.0
-1128.93 1332.60 2244.6
-1143.39 1356.66 2285.1
-1152.15 1374.18 2314.6
-1163.14 1394.55 2348.9
-1172.80 1413.53 2380.9
-1157.07 1401.96 2361.4
-1135.25 1382.83 2329.2
-1142.42 1399.00 2356.4
-1160.96 1429.35 2407.5
-1149.90 1423.39 2397.5
-1138.89 1417.43 2387.4
-1143.03 1430.35 2409.2
-1117.74 1406.39 2368.8
-1094.13 1384.29 2331.6
-1081.85 1376.35 2318.2
-1065.92 1363.66 2296.9
-1062.25 1366.60 2301.8
-1068.83 1382.84 2329.2
-1081.14 1406.71 2369.4
-1071.81 1402.54 2362.4
-1060.70 1395.98 2351.3
-1060.79 1404.17 2365.1
-1051.87 1400.45 2358.8
-1041.19 1394.34 2348.5
-1026.30 1382.48 2328.6
-1035.12 1402.61 2362.5
-1048.34 1428.98 2406.9
-1022.97 1402.75 2362.7
-1001.62 1381.75 2327.3
-1004.59 1394.25 2348.4
-996.48 1391.42 2343.6
-971.30 1364.59 2298.4
-962.64 1360.76 2292.0
-976.97 1389.60 2340.6
-995.10 1424.24 2398.9
-993.92 1431.50 2411.1
-972.75 1409.87 2374.7
-954.71 1392.54 2345.5
-942.39 1383.38 2330.1
-937.32 1384.82 2332.5
-934.19 1389.15 2339.8
-931.34 1393.96 2347.9
-941.28 1418.12 2388.6
-938.28 1422.95 2396.7
-913.66 1394.86 2349.4
-918.27 1411.29 2377.1
-913.63 1433.03 2413.7
-891.98 1408.71 2372.7
-878.76 1397.47 2353.8
-877.78 1405.67 2367.6
-878.24 1416.31 2385.6
-860.32 1397.25 2353.4
-847.01 1385.47 2333.6
-856.00 1410.24 2375.3
-857.43 1422.84 2396.5
-852.33 1424.70 2399.7
-837.64 1410.44 2375.7
-822.77 1395.67 2350.8
-814.03 1391.14 2343.2
-799.07 1375.84 2317.4
-799.19 1386.47 2335.3
-807.07 1410.83 2376.3
-802.78 1414.12 2381.9
-787.68 1398.28 2355.2
-786.15 1406.47 2369.0
-788.91 1422.52 2396.0
-772.88 1404.67 2365.9
-761.82 1395.65 2350.8
-753.76 1392.02 2344.6
-735.68 1369.68 2307.0
-724.34 1359.62 2290.1
-728.96 1379.61 2323.7
-729.80 1392.71 2345.8
-722.07 1389.53 2340.4
-725.05 1407.08 2370.0
-726.61 1422.18 2395.4
-718.29 1418.01 2388.4
-715.21 1424.21 2398.9
-716.02 1438.33 2422.6
-714.27 1447.51 2438.1
-702.99 1437.37 2421.0
-696.36 1436.64 2419.8
-698.78 1454.73 2450.3
-681.92 1432.66 2413.1
-661.73 1403.12 2363.3
-661.50 1415.74 2384.6
-667.38 1441.79 2428.5
-654.57 1427.59 2404.6
-635.79 1399.95 2358.0
-636.25 1414.57 2382.6
-637.47 1431.18 2410.6
-622.96 1412.44 2379.0
-616.21 1411.12 2376.8
-626.72 1449.67 2441.7
-602.29 1436.71 2419.9
-588.62 1418.89 2389.9
-585.56 1426.52 2402.7
-578.17 1423.66 2397.9
-564.16 1404.28 2365.3
-563.05 1416.90 2386.5
-568.12 1445.54 2434.8
-563.02 1448.66 2440.0
-557.89 1451.78 2445.3
-548.93 1444.87 2433.7
-528.34 1406.87 2369.6
-512.36 1380.36 2325.0
-505.80 1378.91 2322.6
-507.80 1401.05 2359.8
-509.80 1423.70 2398.0
-502.00 1419.24 2390.5
-493.36 1412.25 2378.7
-491.20 1423.85 2398.2
-491.84 1444.00 2432.2
-476.09 1453.66 2448.5
-455.26 1408.85 2373.0
-445.58 1397.76 2354.3
-444.38 1413.38 2380.6
-439.92 1418.91 2389.9
-430.33 1407.79 2371.2
-419.61 1392.63 2345.7
-412.77 1390.06 2341.3
-413.48 1413.24 2380.4
-410.35 1423.80 2398.2
-405.27 1427.79 2404.9
-399.02 1427.73 2404.8
-387.62 1408.96 2373.2
-381.99 1410.91 2376.5
-380.12 1427.01 2403.6
-377.84 1442.11 2429.0
-373.87 1451.13 2444.2
-361.10 1425.73 2401.4
-345.27 1387.13 2336.4
-338.93 1385.99 2334.5
-341.49 1421.84 2394.9
-344.33 1460.23 2459.5
-334.53 1445.41 2434.6
-317.24 1397.10 2353.2
-307.27 1379.70 2323.9
-301.32 1380.04 2324.5
-297.32 1389.51 2340.4
-292.81 1396.95 2352.9
-287.40 1400.32 2358.6
-282.47 1406.23 2368.6
-276.69 1408.06 2371.7
-272.17 1416.50 2385.9
-267.28 1423.41 2397.5
-261.02 1423.20 2397.2
-254.22 1419.93 2391.7
-251.18 1438.01 2422.1
-247.89 1455.59 2451.7
-240.40 1448.74 2440.2
-233.71 1446.47 2436.3
-225.35 1433.50 2414.5
-215.71 1411.35 2377.2
-210.72 1419.23 2390.5
-205.95 1429.14 2407.2
-198.24 1418.67 2389.5
-192.56 1422.46 2395.9
-185.98 1419.62 2391.1
-177.48 1401.49 2360.6
-173.07 1415.44 2384.1
-167.87 1423.79 2398.1
-158.66 1397.47 2353.8
-152.47 1396.63 2352.4
-147.51 1407.50 2370.7
-142.35 1417.35 2387.3
-137.36 1429.75 2408.2
-132.01 1439.59 2424.8
-125.74 1439.74 2425.0
-116.59 1405.19 2366.8
-109.06 1387.47 2337.0
-105.17 1416.67 2386.2
-101.06 1446.37 2436.2
-94.51 1442.91 2430.4
-86.60 1416.48 2385.8
-80.45 1417.09 2386.9
-76.24 1454.94 2450.6
-70.19 1461.15 2461.1
-63.14 1445.91 2435.4
-56.73 1443.43 2431.2
-49.50 1416.95 2386.6
-43.24 1414.45 2382.4
-37.40 1427.26 2404.0
-31.20 1428.83 2406.6
-25.23 1444.17 2432.5
-18.73 1429.39 2407.6
-12.39 1418.18 2388.7
-6.29 1441.16 2427.4
0.00 1446.78 2436.9
6.27 1435.04 2417.1
12.52 1432.99 2413.6
18.79 1433.99 2415.3
24.92 1426.82 2403.2
31.23 1430.36 2409.2
37.76 1441.04 2427.2
43.63 1427.21 2403.9
49.77 1424.60 2399.5
56.31 1432.71 2413.2
61.45 1407.12 2370.1
66.68 1388.17 2338.1
72.93 1391.66 2344.0
80.01 1409.44 2374.0
87.31 1428.22 2405.6
93.41 1426.08 2402.0
98.45 1409.13 2373.5
102.97 1387.08 2336.3
109.10 1387.98 2337.8
115.70 1394.48 2348.8
122.13 1398.43 2355.4
130.28 1420.72 2393.0
137.85 1434.85 2416.8
143.79 1431.63 2411.4
150.45 1435.54 2417.9
156.81 1436.39 2419.4
160.98 1417.86 2388.2
164.33 1393.72 2347.5
169.70 1387.93 2337.7
176.77 1395.88 2351.1
183.24 1398.73 2355.9
190.01 1403.62 2364.2
196.39 1405.43 2367.2
200.37 1390.44 2342.0
205.20 1382.07 2327.9
217.03 1420.01 2391.8
229.91 1462.50 2463.4
236.34 1462.75 2463.8
238.38 1436.53 2419.6
242.35 1423.04 2396.9
248.34 1421.74 2394.7
251.49 1404.68 2366.0
255.80 1394.74 2349.2
262.70 1399.02 2356.4
273.14 1421.58 2394.4
280.39 1426.86 2403.3
281.35 1400.64 2359.2
290.63 1416.06 2385.1
304.30 1451.77 2445.3
303.29 1417.42 2387.4
295.67 1354.16 2280.9
301.73 1354.84 2282.0
315.86 1391.01 2342.9
324.67 1402.82 2362.8
325.57 1380.66 2325.5
328.47 1367.62 2303.5
346.24 1415.88 2384.8
358.00 1438.28 2422.6
354.05 1397.88 2354.5
357.96 1389.38 2340.2
366.97 1400.62 2359.1
373.52 1402.23 2361.8
383.64 1416.98 2386.7
386.78 1405.93 2368.1
385.32 1378.71 2322.2
390.78 1376.76 2318.9
403.36 1399.55 2357.3
418.06 1428.89 2406.7
428.21 1442.05 2428.9
431.01 1430.47 2409.4
431.87 1412.84 2379.7
436.48 1407.82 2371.2
438.04 1393.21 2346.7
446.86 1401.80 2361.1
455.59 1409.86 2374.7
458.12 1398.78 2356.0
473.58 1426.96 2403.5
482.17 1433.98 2415.3
478.14 1403.77 2364.4
481.83 1396.70 2352.5
490.90 1405.21 2366.9
489.38 1383.57 2330.4
487.14 1360.43 2291.4
504.89 1393.02 2346.3
517.03 1409.52 2374.1
518.13 1395.91 2351.2
525.71 1399.85 2357.8
539.98 1421.32 2394.0
546.92 1423.23 2397.2
547.64 1409.11 2373.4
548.84 1396.49 2352.2
547.74 1378.38 2321.7
558.14 1389.28 2340.0
578.98 1425.66 2401.3
586.58 1429.02 2407.0
573.91 1383.43 2330.2
585.46 1368.06 2304.3
607.72 1391.69 2344.1
635.04 1439.84 2425.2
630.82 1416.25 2385.4
629.98 1400.63 2359.1
637.82 1404.43 2365.5
637.48 1390.31 2341.8
631.04 1363.29 2296.2
634.59 1358.14 2287.6
660.33 1400.14 2358.3
679.32 1427.20 2403.9
694.97 1446.80 2436.9
701.40 1447.04 2437.3
688.70 1408.15 2371.8
684.96 1388.10 2338.0
690.41 1386.87 2336.0
685.16 1364.37 2298.1
699.61 1369.32 2306.4
714.36 1386.35 2335.1
717.45 1380.65 2325.5
721.53 1376.92 2319.2
718.54 1359.89 2290.5
734.09 1366.72 2302.0
744.43 1374.80 2315.6
741.95 1359.26 2289.5
762.55 1364.25 2297.9
776.35 1378.16 2321.3
780.79 1375.38 2316.6
789.31 1369.33 2306.4
813.57 1400.80 2359.4
813.75 1390.65 2342.3
806.92 1368.78 2305.5
832.71 1402.14 2361.7
834.51 1394.92 2349.5
850.29 1390.83 2342.6
840.52 1365.11 2299.3
852.57 1365.30 2299.6
856.75 1362.47 2294.9
882.63 1365.69 2300.3
886.11 1361.88 2293.9
904.46 1371.66 2310.4
926.20 1395.40 2350.3
923.59 1382.37 2328.4
949.15 1367.02 2302.5
961.51 1376.16 2317.9
958.72 1363.65 2296.9
965.35 1364.60 2298.5
994.33 1371.70 2310.4
998.90 1369.74 2307.1
-1668.91 1316.65 2227.4
-1657.16 1321.09 2234.9
-1673.43 1338.75 2264.8
-1645.16 1320.76 2234.4
-1633.14 1320.41 2233.8
-1642.80 1332.94 2255.0
-1656.08 1348.52 2281.3
-1660.28 1356.79 2295.3
-1614.33 1323.99 2239.8
-1603.27 1329.26 2248.7
-1601.64 1332.75 2254.6
-1593.21 1330.60 2251.0
-1568.19 1314.52 2223.8
-1553.81 1321.90 2236.3
-1544.92 1319.26 2231.8
-1535.54 1316.18 2226.6
-1549.60 1333.24 2255.5
-1545.26 1334.54 2257.7
-1547.49 1341.55 2269.5
-1563.80 1360.86 2302.2
-1548.27 1352.51 2288.1
-1514.73 1328.30 2247.1
-1511.36 1330.47 2250.8
-1529.94 1352.04 2287.3
-1530.45 1357.75 2297.0
-1529.93 1362.60 2305.1
-1537.79 1374.96 2326.1
-1493.77 1340.87 2268.4
-1466.99 1343.27 2272.4
-1497.83 1377.04 2329.6
-1473.41 1360.07 2300.9
-1444.76 1339.05 2265.3
-1441.68 1341.65 2269.7
-1453.41 1358.10 2297.5
-1462.63 1372.35 2321.6
-1452.27 1368.26 2314.7
-1423.93 1347.12 2279.0
-1418.40 1347.48 2279.6
-1442.98 1376.57 2328.8
-1448.13 1387.28 2346.9
-1405.03 1351.68 2286.7
-1370.57 1324.11 2240.0
-1363.23 1322.62 2237.5
-1355.50 1332.13 2253.6
-1365.09 1347.37 2279.4
-1349.92 1338.18 2263.8
-1349.82 1343.92 2273.6
-1364.18 1364.18 2307.8
-1351.29 1357.24 2296.1
-1338.44 1350.28 2284.3
-1341.79 1359.68 2300.2
-1331.65 1355.43 2293.0
-1331.79 1361.65 2303.6
-1347.42 1383.84 2341.1
-1322.64 1364.53 2308.4
-1283.88 1330.57 2251.0
-1296.74 1350.03 2283.9
-1323.45 1384.16 2341.6
-1304.15 1370.26 2318.1
-1267.58 1338.00 2263.5
-1264.11 1340.54 2267.8
-1282.59 1366.50 2311.8
-1280.71 1370.90 2319.2
-1281.79 1378.53 2332.1
-1298.57 1403.20 2373.8
-1280.80 1390.58 2352.5
-1255.92 1370.10 2317.8
-1258.56 1379.57 2333.9
-1239.31 1365.04 2309.3
-1226.86 1357.88 2297.2
-1249.81 1390.03 2351.6
-1243.10 1389.35 2350.4
-1201.73 1349.73 2283.4
-1185.31 1337.87 2263.3
-1187.38 1346.88 2278.6
-1186.94 1353.11 2289.1
-1185.64 1358.42 2298.1
-1187.13 1366.99 2312.6
-1195.39 1383.49 2340.5
-1190.69 1385.09 2343.2
-1177.21 1376.43 2328.5
-1177.29 1383.62 2340.7
-1178.90 1392.69 2356.1
-1174.92 1395.22 2360.3
-1166.61 1392.60 2355.9
-1157.92 1389.51 2350.7
-1172.96 1415.00 2393.8
-1181.61 1433.02 2424.3
-1154.31 1407.39 2380.9
-1138.69 1395.82 2361.3
-1140.72 1405.86 2378.3
-1142.66 1415.91 2395.3
-1136.58 1416.07 2395.6
-1101.90 1380.40 2335.3
-1094.45 1378.65 2332.3
-1098.19 1391.04 2353.3
-1087.37 1385.03 2343.1
-1089.88 1396.02 2361.7
-1060.33 1365.85 2310.7
-1036.50 1342.74 2271.6
-1053.58 1372.67 2322.2
-1067.18 1398.37 2365.7
-1063.28 1401.32 2370.7
-1050.76 1392.87 2356.4
-1048.28 1397.71 2364.6
-1042.93 1398.75 2366.3
-1036.15 1397.88 2364.8
-1032.53 1401.29 2370.6
-1035.87 1414.24 2392.5
-1042.57 1431.97 2422.5
-1021.84 1412.00 2388.7
-991.63 1378.61 2332.2
-991.42 1386.77 2346.0
-1006.45 1416.48 2396.3
-1001.62 1418.45 2399.6
-1000.48 1425.68 2411.9
-991.25 1421.41 2404.6
-963.42 1390.26 2351.9
-952.04 1382.58 2339.0
-946.64 1383.54 2340.6
-945.14 1390.27 2352.0
-946.19 1400.85 2369.9
-941.34 1402.78 2373.1
-949.31 1423.97 2409.0
-941.47 1421.56 2404.9
-912.69 1387.29 2346.9
-901.53 1379.53 2333.8
-909.25 1400.74 2369.7
-921.48 1429.23 2417.9
-914.26 1427.76 2415.4
-889.82 1399.16 2367.0
-874.16 1384.08 2341.5
-877.16 1398.56 2366.0
-881.56 1415.47 2394.6
-875.31 1415.40 2394.5
-873.54 1422.62 2406.7
-879.40 1442.47 2440.3
-877.45 1449.70 2452.5
-871.93 1451.10 2454.9
-855.65 1434.47 2426.7
-830.27 1402.23 2372.2
-812.59 1382.61 2339.0
-795.07 1362.97 2305.8
-791.55 1367.22 2313.0
-805.11 1401.25 2370.5
-805.85 1413.33 2391.0
-797.91 1410.26 2385.8
-803.73 1431.65 2422.0
-803.37 1442.28 2439.9
-783.44 1417.65 2398.3
-770.95 1406.22 2378.9
-761.22 1399.67 2367.9
-744.40 1379.86 2334.4
-734.30 1372.30 2321.6
-740.95 1396.16 2361.9
-743.25 1412.18 2389.0
-736.70 1411.49 2387.9
-741.10 1431.95 2422.5
-740.02 1442.09 2439.6
-730.08 1434.99 2427.6
-723.19 1433.80 2425.6
-719.75 1439.50 2435.2
-711.86 1436.31 2429.9
-695.50 1415.84 2395.2
-679.79 1396.33 2362.2
-673.30 1395.57 2360.9
-668.47 1398.27 2365.5
-660.10 1393.54 2357.5
-651.53 1388.31 2348.6
-648.99 1395.94 2361.6
-660.53 1434.29 2426.4
-650.15 1439.17 2434.7
-635.05 1419.53 2401.5
-631.11 1424.68 2410.2
-635.39 1448.70 2450.8
-621.99 1447.08 2448.1
-613.39 1441.78 2439.1
-599.59 1424.03 2409.1
-589.05 1413.73 2391.6
-589.69 1430.30 2419.7
-583.88 1431.44 2421.6
-571.02 1415.13 2394.0
-562.27 1408.76 2383.2
-560.66 1420.35 2402.8
-562.47 1440.92 2437.7
-538.54 1427.75 2415.4
-520.56 1396.34 2362.2
-512.07 1389.90 2351.3
-507.09 1392.96 2356.5
-501.36 1394.02 2358.3
-502.73 1415.10 2394.0
-502.34 1431.68 2422.0
-496.77 1433.73 2425.5
-493.93 1443.80 2442.5
-491.85 1456.38 2463.8
-485.81 1457.42 2465.6
-475.13 1444.40 2443.5
-460.17 1417.81 2398.5
-446.07 1393.20 2356.9
-440.11 1393.69 2357.8
-439.94 1412.77 2390.0
-434.20 1414.26 2392.6
-429.06 1417.76 2398.5
-427.48 1433.32 2424.8
-418.67 1424.74 2410.3
-406.58 1404.56 2376.1
-406.01 1424.14 2409.3
-403.99 1439.20 2434.7
-392.92 1422.01 2405.7
-387.49 1424.96 2410.7
-383.51 1433.46 2425.0
-379.33 1441.45 2438.5
-373.38 1442.88 2441.0
-358.55 1409.48 2384.5
-343.38 1373.53 2323.6
-337.70 1374.92 2326.0
-337.61 1399.54 2367.6
-337.66 1425.68 2411.9
-333.61 1435.15 2427.9
-321.75 1410.75 2386.6
-311.46 1392.40 2355.6
-305.21 1391.74 2354.4
-303.85 1413.83 2391.8
-301.34 1431.37 2421.5
-295.13 1431.70 2422.1
-289.63 1435.58 2428.6
-279.40 1415.65 2394.9
-270.52 1401.78 2371.4
-262.23 1390.43 2352.2
-252.55 1370.96 2319.3
-249.95 1389.99 2351.5
-250.93 1430.31 2419.7
-246.01 1438.19 2433.0
-236.79 1420.72 2403.5
-234.55 1445.33 2445.1
-230.65 1460.80 2471.3
-219.30 1428.59 2416.8
-212.69 1426.30 2412.9
-209.26 1445.82 2445.9
-202.67 1444.02 2442.9
-195.82 1440.19 2436.4
-188.12 1429.74 2418.7
-176.91 1390.85 2352.9
-169.83 1382.92 2339.5
-170.17 1436.95 2430.9
-165.80 1453.91 2459.6
-157.94 1440.37 2436.7
-151.42 1438.52 2433.6
-145.44 1441.73 2439.0
-139.72 1447.99 2449.6
-133.29 1447.13 2448.2
-125.97 1436.09 2429.5
-118.88 1426.57 2413.4
-113.12 1432.81 2423.9
-106.54 1428.86 2417.3
-100.03 1425.42 2411.4
-92.95 1412.82 2390.1
-84.57 1377.32 2330.0
-79.09 1387.07 2346.6
-75.52 1434.97 2427.6
-70.00 1450.83 2454.4
-63.48 1447.34 2448.5
-57.15 1447.92 2449.5
-49.99 1424.58 2410.0
-43.15 1405.29 2377.4
-36.86 1400.76 2369.7
-31.04 1415.56 2394.7
-25.34 1444.59 2443.9
-18.71 1421.72 2405.2
-12.30 1401.89 2371.6
-6.24 1422.26 2406.1
0.00 1426.33 2413.0
6.26 1426.83 2413.8
12.60 1436.49 2430.2
18.87 1434.44 2426.7
24.99 1424.24 2409.4
30.62 1396.22 2362.0
36.19 1375.32 2326.7
43.02 1401.22 2370.5
50.48 1438.82 2434.1
57.28 1450.97 2454.7
62.70 1429.54 2418.4
68.23 1414.20 2392.4
74.75 1420.22 2402.6
81.03 1421.15 2404.2
87.41 1423.60 2408.3
93.22 1416.89 2397.0
97.89 1394.91 2359.8
102.60 1375.98 2327.8
108.98 1380.44 2335.3
117.82 1413.86 2391.9
126.73 1444.74 2444.1
132.45 1437.98 2432.7
137.27 1422.58 2406.6
139.49 1382.78 2339.3
142.33 1352.13 2287.4
154.43 1408.36 2382.6
164.87 1445.78 2445.9
167.58 1415.11 2394.0
172.33 1403.24 2373.9
177.68 1396.95 2363.3
182.58 1387.60 2347.4
188.43 1385.87 2344.5
193.84 1381.09 2336.4
201.26 1390.51 2352.4
209.74 1406.51 2379.4
216.81 1412.36 2389.3
224.57 1422.26 2406.1
235.70 1452.43 2457.1
242.70 1456.21 2463.5
242.62 1418.42 2399.6
244.71 1394.83 2359.7
253.69 1410.77 2386.6
264.12 1433.78 2425.6
265.19 1406.13 2378.8
269.44 1396.21 2362.0
279.10 1414.13 2392.3
282.48 1400.14 2368.7
287.73 1395.77 2361.3
296.76 1409.61 2384.7
305.91 1423.44 2408.1
308.87 1408.43 2382.7
305.80 1367.12 2312.8
310.11 1359.70 2300.2
324.09 1394.22 2358.6
330.84 1396.88 2363.2
331.03 1372.27 2321.5
346.13 1409.26 2384.1
361.30 1445.21 2444.9
359.96 1415.03 2393.9
354.84 1371.24 2319.8
365.84 1367.41 2313.3
380.09 1397.75 2364.6
388.89 1407.40 2380.9
393.10 1400.41 2369.1
395.67 1387.89 2347.9
405.42 1400.53 2369.3
415.57 1414.17 2392.4
421.33 1412.70 2389.9
432.25 1428.32 2416.3
441.92 1439.40 2435.1
444.79 1428.35 2416.4
444.56 1407.76 2381.6
443.66 1385.67 2344.2
441.59 1360.57 2301.7
458.88 1376.64 2328.9
476.26 1410.24 2385.7
481.41 1407.20 2380.6
483.23 1394.64 2359.4
490.39 1397.61 2364.4
497.22 1399.57 2367.7
503.34 1399.52 2367.6
507.45 1393.96 2358.2
506.17 1373.90 2324.3
511.62 1372.34 2321.6
524.21 1389.77 2351.1
536.95 1407.17 2380.6
541.54 1403.09 2373.6
541.42 1387.02 2346.5
541.96 1372.95 2322.7
547.94 1372.86 2322.5
565.59 1401.67 2371.2
582.45 1427.95 2415.7
586.61 1422.83 2407.0
584.28 1402.28 2372.3
583.25 1385.22 2343.4
589.27 1385.08 2343.2
595.49 1385.44 2343.8
593.52 1366.90 2312.4
614.92 1402.01 2371.8
641.00 1447.01 2448.0
635.49 1420.52 2403.1
633.57 1402.47 2372.6
639.86 1402.78 2373.1
643.19 1396.63 2362.7
639.55 1375.64 2327.2
650.02 1372.27 2321.5
659.49 1379.48 2333.7
665.91 1380.25 2335.0
687.97 1413.13 2390.6
691.62 1407.94 2381.9
688.63 1389.44 2350.6
694.35 1388.70 2349.3
696.59 1381.06 2336.4
701.76 1379.33 2333.4
704.40 1372.67 2322.2
703.41 1359.12 2299.3
717.70 1375.10 2326.3
732.90 1392.52 2355.8
732.86 1380.93 2336.2
735.61 1374.75 2325.7
737.78 1367.59 2313.6
750.26 1368.48 2315.1
767.47 1388.75 2349.4
766.29 1375.70 2327.3
768.57 1369.02 2316.0
811.04 1400.90 2369.9
811.00 1390.29 2352.0
821.67 1377.50 2330.4
846.20 1408.28 2382.4
831.83 1374.33 2325.0
853.45 1360.74 2302.0
865.90 1371.00 2319.4
867.34 1363.82 2307.2
873.68 1364.37 2308.2
878.15 1362.02 2304.2
1010.61 1388.07 2348.2
1017.01 1388.49 2348.9
1194.57 1368.65 2315.4
1201.62 1369.84 2317.4
-1687.90 1312.17 2229.6
-1686.02 1315.21 2234.8
-1677.59 1313.15 2231.3
-1660.45 1313.32 2231.6
-1671.42 1326.62 2254.2
-1678.01 1336.52 2271.0
-1659.88 1326.74 2254.4
-1646.09 1320.36 2243.5
-1648.32 1326.84 2254.5
-1647.86 1331.19 2261.9
-1640.46 1329.95 2259.8
-1623.55 1320.95 2244.5
-1621.99 1324.43 2250.4
-1619.35 1327.05 2254.9
-1567.61 1322.86 2247.8
-1576.68 1335.47 2269.2
-1553.39 1320.67 2244.1
-1543.26 1321.96 2246.2
-1530.30 1315.83 2235.8
-1523.97 1315.36 2235.0
-1548.96 1342.03 2280.4
-1541.52 1340.71 2278.1
-1521.54 1328.42 2257.2
-1531.68 1342.44 2281.0
-1521.25 1338.47 2274.3
-1492.92 1318.65 2240.6
-1503.44 1333.13 2265.2
-1522.77 1355.56 2303.3
-1498.02 1338.78 2274.8
-1459.02 1330.11 2260.1
-1500.59 1373.52 2333.9
-1486.77 1366.38 2321.7
-1462.40 1349.45 2293.0
-1464.55 1356.95 2305.7
-1465.69 1363.57 2317.0
-1467.25 1370.64 2329.0
-1479.23 1387.54 2357.7
-1471.65 1386.16 2355.3
-1431.94 1354.38 2301.3
-1423.53 1352.06 2297.4
-1435.32 1368.98 2326.2
-1401.13 1342.01 2280.3
-1389.98 1336.97 2271.8
-1405.35 1357.51 2306.7
-1384.44 1343.03 2282.0
-1365.47 1330.31 2260.4
-1378.81 1349.09 2292.3
-1387.42 1363.39 2316.6
-1373.53 1355.61 2303.4
-1375.17 1363.16 2316.3
-1385.39 1379.31 2343.7
-1368.34 1368.34 2325.1
-1329.28 1335.16 2268.7
-1308.87 1320.50 2243.8
-1320.33 1338.01 2273.5
-1340.59 1364.63 2318.8
-1342.87 1373.12 2333.2
-1306.58 1342.05 2280.4
-1279.02 1325.75 2252.7
-1309.78 1363.85 2317.4
-1294.88 1354.55 2301.6
-1257.01 1321.02 2244.7
-1252.72 1322.63 2247.4
-1289.82 1368.17 2324.8
-1308.54 1394.55 2369.6
-1294.97 1386.59 2356.1
-1296.79 1395.13 2370.6
-1287.93 1392.20 2365.6
-1271.48 1380.98 2346.5
-1278.28 1395.04 2370.4
-1261.88 1383.80 2351.3
-1231.35 1356.88 2305.6
-1234.32 1366.79 2322.4
-1233.90 1373.02 2333.0
-1198.73 1340.46 2277.7
-1193.42 1341.12 2278.8
-1205.71 1361.67 2313.7
-1209.69 1373.00 2333.0
-1213.17 1383.87 2351.4
-1204.03 1380.38 2345.5
-1201.36 1384.30 2352.2
-1197.85 1387.30 2357.3
-1185.52 1380.07 2345.0
-1178.02 1378.40 2342.2
-1171.71 1378.13 2341.7
-1161.07 1372.72 2332.5
-1146.93 1363.10 2316.2
-1142.62 1365.13 2319.6
-1162.81 1396.60 2373.1
-1166.49 1408.47 2393.3
-1134.61 1377.30 2340.3
-1114.08 1359.66 2310.3
-1112.41 1364.96 2319.3
-1107.27 1366.03 2321.1
-1093.79 1356.77 2305.4
-1091.67 1361.59 2313.6
-1115.76 1399.33 2377.7
-1108.97 1398.53 2376.4
-1088.06 1379.83 2344.6
-1116.08 1423.31 2418.5
-1111.39 1425.34 2421.9
-1056.18 1362.24 2314.7
-1044.06 1354.30 2301.2
-1049.75 1369.50 2327.0
-1035.49 1358.71 2308.7
-1037.09 1368.72 2325.7
-1048.25 1391.54 2364.5
-1041.83 1391.15 2363.8
-1034.70 1389.81 2361.5
-1040.58 1406.03 2389.1
-1051.58 1429.39 2428.8
-1050.92 1437.10 2441.9
-1022.51 1406.73 2390.3
-999.51 1383.46 2350.8
-1007.47 1403.05 2384.0
-1005.75 1409.30 2394.7
-984.35 1387.87 2358.2
-989.70 1404.14 2385.9
-986.89 1408.96 2394.1
-966.06 1387.95 2358.4
-961.94 1390.83 2363.3
-955.16 1389.89 2361.7
-953.30 1396.12 2372.3
-947.48 1396.60 2373.1
-935.50 1387.96 2358.4
-923.59 1379.31 2343.7
-895.44 1346.12 2287.3
-890.43 1347.51 2289.7
-903.72 1376.81 2339.4
-899.82 1380.14 2345.1
-900.27 1390.21 2362.2
-901.56 1401.73 2381.8
-885.80 1386.73 2356.3
-879.04 1385.71 2354.6
-890.24 1413.18 2401.3
-887.91 1419.41 2411.8
-874.11 1407.26 2391.2
-858.32 1391.70 2364.8
-849.17 1386.77 2356.4
-856.26 1408.49 2393.3
-859.96 1424.89 2421.2
-845.78 1411.71 2398.8
-822.76 1383.45 2350.7
-810.85 1373.61 2334.0
-800.17 1365.70 2320.6
-801.14 1377.72 2341.0
-818.31 1417.98 2409.4
-822.59 1436.37 2440.7
-817.58 1438.69 2444.6
-803.47 1424.91 2421.2
-782.93 1399.40 2377.8
-768.00 1383.62 2351.0
-760.74 1381.49 2347.4
-761.23 1393.53 2367.9
-754.72 1392.87 2366.7
-744.02 1384.36 2352.3
-749.82 1406.69 2390.2
-752.07 1422.66 2417.4
-745.45 1421.98 2416.2
-732.20 1408.55 2393.4
-714.50 1386.26 2355.5
-719.32 1407.63 2391.8
-726.69 1434.43 2437.4
-719.28 1432.25 2433.7
-708.21 1422.69 2417.4
-701.34 1421.47 2415.3
-694.48 1420.25 2413.3
-682.62 1408.67 2393.6
-672.97 1401.51 2381.4
-669.72 1407.66 2391.9
-666.18 1413.30 2401.5
-654.76 1402.17 2382.5
-657.81 1422.13 2416.5
-664.09 1449.51 2463.0
-648.61 1429.46 2428.9
-644.85 1435.10 2438.5
-630.45 1445.58 2456.3
-618.17 1431.89 2433.0
-608.97 1425.12 2421.5
-605.28 1431.23 2431.9
-604.64 1444.78 2454.9
-591.97 1429.55 2429.1
-573.12 1398.90 2377.0
-570.63 1407.97 2392.4
-571.85 1426.48 2423.8
-573.70 1446.99 2458.7
-551.27 1438.38 2444.1
-540.82 1427.52 2425.6
-531.02 1418.15 2409.7
-515.77 1393.80 2368.3
-503.63 1377.40 2340.5
-500.11 1384.44 2352.4
-504.00 1412.43 2400.0
-507.29 1439.45 2445.9
-505.14 1451.49 2466.3
-498.08 1449.54 2463.0
-491.88 1450.09 2464.0
-487.35 1455.63 2473.4
-477.31 1444.65 2454.7
-467.85 1435.17 2438.6
-458.80 1426.67 2424.2
-445.05 1403.14 2384.2
-436.83 1396.61 2373.1
-432.68 1403.11 2384.1
-429.23 1412.10 2399.4
-429.46 1433.64 2436.0
-422.25 1430.60 2430.8
-406.30 1397.44 2374.5
-402.29 1404.92 2387.2
-404.01 1432.98 2434.9
-396.29 1427.90 2426.3
-391.90 1434.86 2438.1
-389.21 1448.36 2461.0
-379.88 1437.23 2442.1
-369.35 1421.06 2414.6
-363.84 1423.98 2419.6
-357.66 1424.38 2420.3
-343.17 1391.06 2363.7
-334.45 1380.36 2345.5
-335.64 1410.95 2397.5
-332.81 1425.42 2422.0
-321.65 1404.12 2385.9
-311.69 1387.35 2357.4
-306.88 1393.24 2367.4
-306.91 1421.81 2415.9
-306.05 1447.37 2459.3
-301.10 1454.26 2471.1
-294.15 1451.57 2466.5
-282.22 1423.64 2419.0
-271.51 1400.73 2380.1
-260.99 1377.81 2341.1
-252.27 1363.45 2316.8
-250.42 1386.46 2355.9
-245.43 1392.80 2366.6
-234.74 1366.30 2321.6
-229.86 1373.13 2333.2
-231.93 1422.92 2417.8
-230.99 1456.54 2474.9
-222.36 1442.14 2450.5
-213.24 1423.67 2419.1
-207.37 1426.44 2423.8
-201.26 1427.68 2425.9
-194.79 1426.38 2423.7
-187.27 1416.98 2407.7
-175.88 1376.70 2339.3
-168.53 1366.27 2321.5
-168.73 1418.60 2410.5
-165.93 1448.66 2461.5
-159.62 1449.35 2462.7
-152.67 1443.96 2453.5
-146.12 1442.10 2450.4
-141.15 1456.45 2474.8
-135.45 1464.20 2487.9
-126.65 1437.50 2442.6
-118.17 1411.79 2398.9
-111.20 1402.29 2382.8
-103.70 1384.68 2352.8
-97.53 1383.78 2351.3
-90.74 1373.24 2333.4
-84.07 1363.20 2316.3
-80.05 1397.76 2375.1
-74.89 1416.61 2407.1
-68.09 1405.03 2387.4
-61.88 1404.60 2386.7
-55.81 1407.71 2391.9
-50.08 1420.95 2414.5
-44.38 1439.26 2445.6
-38.41 1453.00 2468.9
-18.67 1413.03 2401.0
-12.12 1376.02 2338.1
-6.07 1378.57 2342.4
0.00 1399.37 2377.8
6.25 1417.62 2408.8
12.62 1431.82 2432.9
18.96 1434.33 2437.2
25.33 1437.35 2442.3
31.35 1423.12 2418.1
36.41 1377.44 2340.5
42.47 1377.39 2340.4
50.04 1419.94 2412.7
57.00 1437.63 2442.8
63.11 1432.49 2434.1
69.53 1434.95 2438.2
75.61 1430.30 2430.3
81.24 1418.55 2410.4
88.20 1430.12 2430.0
94.70 1433.05 2435.0
99.71 1414.70 2403.8
104.80 1399.37 2377.8
109.99 1387.09 2356.9
117.49 1403.68 2385.1
126.96 1441.04 2448.6
133.58 1443.94 2453.5
138.35 1427.57 2425.7
140.62 1387.90 2358.3
151.64 1376.93 2339.7
166.10 1450.18 2464.1
172.89 1453.53 2469.8
174.77 1416.89 2407.5
176.91 1384.80 2353.0
181.98 1377.01 2339.8
188.02 1376.80 2339.4
194.63 1380.63 2345.9
203.18 1397.60 2374.8
210.51 1405.46 2388.1
216.12 1401.68 2381.7
222.66 1403.96 2385.6
232.59 1426.96 2424.7
243.40 1453.99 2470.6
247.33 1439.56 2446.1
249.97 1418.57 2410.4
259.91 1438.99 2445.1
269.93 1458.90 2478.9
270.37 1427.29 2425.2
267.69 1381.05 2346.6
270.31 1363.58 2317.0
281.98 1391.53 2364.5
296.19 1430.56 2430.8
302.53 1430.73 2431.1
309.09 1431.90 2433.1
316.32 1436.08 2440.2
317.47 1413.05 2401.0
316.11 1379.94 2344.8
324.58 1390.16 2362.1
340.43 1431.09 2431.7
350.43 1446.31 2457.5
352.60 1429.31 2428.7
354.25 1410.80 2397.2
359.72 1407.88 2392.3
361.38 1390.38 2362.5
363.55 1352.88 2298.8
377.77 1383.12 2350.2
385.69 1389.73 2361.4
396.65 1406.87 2390.5
406.17 1418.47 2410.2
414.91 1427.05 2424.8
423.43 1434.61 2437.7
424.05 1415.58 2405.3
429.84 1414.11 2402.8
444.57 1441.69 2449.7
452.34 1446.21 2457.4
450.13 1419.16 2411.4
447.21 1390.63 2362.9
450.89 1383.13 2350.2
458.30 1387.13 2357.0
467.76 1397.12 2374.0
479.67 1414.10 2402.8
487.61 1419.06 2411.2
492.11 1414.03 2402.7
492.16 1396.51 2372.9
491.17 1376.50 2338.9
497.94 1378.45 2342.2
502.36 1373.91 2334.5
506.91 1369.87 2327.7
518.52 1384.76 2353.0
527.05 1391.16 2363.8
535.24 1396.56 2373.0
544.64 1404.93 2387.2
548.06 1397.86 2375.2
552.60 1393.78 2368.3
563.68 1406.10 2389.2
567.61 1400.52 2379.7
569.86 1390.96 2363.5
584.37 1411.18 2397.9
592.39 1415.51 2405.2
591.02 1397.51 2374.6
596.69 1396.37 2372.7
598.28 1385.81 2354.7
591.79 1356.93 2305.7
602.06 1366.68 2322.2
617.26 1387.31 2357.3
622.18 1384.66 2352.8
631.34 1391.40 2364.2
638.97 1394.67 2369.8
643.65 1391.51 2364.4
647.15 1385.88 2354.9
648.28 1375.32 2336.9
653.07 1372.65 2332.4
668.72 1367.57 2323.8
678.28 1374.73 2335.9
681.28 1368.59 2325.5
697.56 1389.00 2360.2
710.02 1401.52 2381.4
706.27 1382.10 2348.4
717.69 1369.05 2326.3
732.13 1384.94 2353.3
731.55 1372.41 2332.0
732.45 1362.83 2315.7
754.01 1369.28 2326.7
767.73 1383.13 2350.2
764.09 1365.74 2320.6
793.31 1374.66 2335.8
817.55 1405.94 2388.9
806.44 1376.40 2338.8
818.42 1376.17 2338.4
836.48 1396.18 2372.4
845.03 1400.16 2379.1
845.36 1390.56 2362.8
866.18 1365.43 2320.1
875.94 1371.29 2330.1
893.93 1361.89 2314.1
912.06 1371.11 2329.8
912.65 1362.98 2315.9
925.35 1363.99 2317.7
940.21 1376.95 2339.7
-1706.14 1329.61 2269.2
-1698.19 1327.99 2266.5
-1690.79 1326.80 2264.4
-1688.25 1329.43 2268.9
-1693.24 1338.02 2283.6
-1669.15 1323.60 2259.0
-1640.73 1324.31 2260.2
-1623.28 1314.92 2244.2
-1622.26 1318.81 2250.8
-1625.18 1340.48 2287.8
-1602.62 1326.71 2264.3
-1600.37 1344.55 2294.7
-1616.56 1363.22 2326.6
-1588.53 1344.60 2294.8
-1568.80 1332.89 2274.8
-1551.69 1323.33 2258.5
-1552.79 1339.43 2286.0
-1565.51 1355.58 2313.6
-1566.06 1361.27 2323.3
-1561.05 1362.15 2324.8
-1536.04 1345.52 2296.4
-1505.15 1323.60 2259.0
-1514.16 1336.72 2281.4
-1522.09 1348.99 2302.3
-1484.48 1320.84 2254.3
-1487.40 1333.94 2276.6
-1495.65 1346.68 2298.4
-1485.25 1342.67 2291.5
-1475.85 1339.53 2286.2
-1482.00 1350.53 2304.9
-1475.49 1350.04 2304.1
-1458.85 1340.24 2287.4
-1466.31 1352.59 2308.5
-1472.24 1363.63 2327.3
-1461.37 1359.14 2319.6
-1461.96 1365.30 2330.2
-1457.28 1366.58 2332.3
-1418.06 1335.34 2279.0
-1394.14 1318.31 2250.0
-1391.48 1321.32 2255.1
-1404.24 1339.07 2285.4
-1438.36 1377.41 2350.8
-1410.79 1356.76 2315.6
-1385.10 1349.28 2302.8
-1399.67 1369.38 2337.1
-1391.68 1367.48 2333.9
-1364.55 1346.68 2298.4
-1345.74 1333.94 2276.6
-1356.90 1350.92 2305.6
-1347.18 1347.18 2299.2
-1326.69 1332.58 2274.3
-1339.00 1350.95 2305.7
-1330.64 1348.54 2301.6
-1305.40 1328.92 2268.1
-1299.79 1329.20 2268.5
-1292.41 1327.65 2265.9
-1282.92 1330.00 2269.9
-1296.50 1350.28 2304.5
-1287.31 1346.91 2298.8
-1278.57 1343.99 2293.8
-1311.73 1385.29 2364.3
-1325.67 1406.57 2400.6
-1304.73 1390.89 2373.8
-1295.01 1387.07 2367.3
-1274.25 1371.33 2340.5
