ply
format ascii 1.0
element vertex 2057
property float x
property float y
property float z
end_header
-149.40 -1344.61 3032.9
-145.64 -1383.62 3120.9
-130.77 -1397.65 3152.6
-104.99 -1380.98 3115.0
-94.22 -1342.59 3028.4
-89.32 -1388.46 3131.9
-46.64 -1329.22 2998.2
-39.15 -1338.98 3020.3
-32.07 -1371.03 3092.6
-23.21 -1323.24 2984.7
-15.42 -1318.80 2974.7
-7.76 -1326.92 2993.0
0.00 -1334.21 3009.5
31.35 -1340.23 3023.1
45.67 -1301.66 2936.1
54.11 -1321.87 2981.7
60.78 -1299.13 2930.4
68.65 -1304.33 2942.1
79.12 -1352.88 3051.6
88.72 -1379.14 3110.8
96.49 -1375.00 3101.5
102.80 -1352.22 3050.1
110.63 -1351.30 3048.1
118.17 -1347.14 3038.7
125.05 -1336.50 3014.7
132.78 -1335.56 3012.5
139.29 -1323.28 2984.9
147.33 -1325.98 2990.9
158.81 -1357.82 3062.7
164.59 -1340.26 3023.1
166.21 -1291.93 2914.1
173.31 -1288.53 2906.5
180.25 -1284.31 2897.0
196.51 -1292.45 2915.3
203.72 -1290.24 2910.3
218.88 -1290.64 2911.2
232.14 -1323.17 2984.6
242.47 -1337.50 3016.9
242.61 -1296.45 2924.3
257.84 -1296.78 2925.1
270.33 -1320.76 2979.2
276.47 -1313.23 2962.2
286.71 -1325.08 2988.9
287.94 -1295.74 2922.7
300.61 -1285.09 2898.7
317.92 -1325.94 2990.8
318.07 -1294.99 2921.0
423.53 -1293.29 2917.2
435.65 -1306.94 2948.0
438.93 -1294.08 2919.0
443.03 -1284.03 2896.3
450.67 -1284.41 2897.2
457.60 -1282.78 2893.5
475.12 -1310.42 2955.8
485.42 -1317.58 2972.0
500.73 -1259.20 2840.3
511.78 -1268.33 2860.9
532.09 -1299.83 2931.9
526.54 -1268.16 2860.5
574.51 -1275.86 2877.9
607.17 -1331.11 3002.5
610.47 -1304.89 2943.4
600.87 -1268.50 2861.3
607.25 -1266.34 2856.4
615.54 -1268.16 2860.5
626.39 -1275.14 2876.3
638.49 -1284.50 2897.4
657.89 -1308.13 2950.7
670.48 -1317.84 2972.6
677.05 -1315.63 2967.6
699.08 -1328.24 2996.0
685.84 -1288.77 2907.0
680.04 -1263.99 2851.1
681.71 -1253.46 2827.4
721.71 -1285.55 2899.7
735.58 -1296.74 2925.0
723.54 -1262.51 2847.8
739.15 -1263.94 2851.0
747.77 -1266.02 2855.7
785.00 -1290.72 2911.4
799.66 -1277.95 2882.6
784.85 -1242.68 2803.0
793.17 -1233.02 2781.2
822.05 -1266.40 2856.5
822.04 -1255.08 2831.0
836.77 -1244.24 2806.6
869.78 -1282.18 2892.1
916.61 -1295.37 2921.9
938.39 -1294.08 2919.0
915.81 -1252.83 2825.9
984.45 -1285.05 2898.6
954.10 -1217.54 2746.3
985.46 -1221.11 2754.4
995.97 -1225.26 2763.7
1013.63 -1229.29 2772.8
1030.93 -1241.47 2800.3
1068.58 -1277.81 2882.3
1083.03 -1286.10 2901.0
1052.71 -1241.47 2800.3
1031.40 -1208.01 2724.8
1068.48 -1234.53 2784.6
1106.96 -1245.33 2809.0
1102.44 -1216.24 2743.4
1155.11 -1226.85 2767.3
1189.68 -1255.77 2832.6
1169.77 -1227.18 2768.1
1158.97 -1208.44 2725.8
1223.69 -1238.18 2792.9
1242.26 -1249.57 2818.6
1206.47 -1206.47 2721.4
1226.49 -1219.36 2750.4
1286.47 -1271.60 2868.3
1270.33 -1248.43 2816.0
1265.11 -1201.85 2710.9
1326.24 -1252.97 2826.2
1290.44 -1212.44 2734.8
1329.97 -1184.51 2671.8
1379.63 -1197.54 2701.2
1384.94 -1196.09 2697.9
1952.46 -1139.49 2570.3
-468.25 -1342.32 3010.2
-475.12 -1385.11 3106.1
-399.11 -1346.02 3018.5
-400.68 -1378.34 3091.0
-385.05 -1351.62 3031.0
-336.19 -1344.77 3015.7
-324.10 -1327.26 2976.4
-321.86 -1350.26 3028.0
-326.72 -1404.90 3150.5
-293.53 -1402.43 3145.0
-268.45 -1399.18 3137.7
-257.11 -1381.97 3099.1
-247.36 -1372.47 3077.8
-243.11 -1393.82 3125.7
-237.17 -1406.65 3154.4
-222.21 -1365.02 3061.1
-213.54 -1360.35 3050.6
-192.00 -1375.97 3085.7
-183.04 -1368.84 3069.6
-169.44 -1324.68 2970.6
-161.41 -1321.99 2964.6
-159.84 -1374.62 3082.6
-150.97 -1366.63 3064.7
-142.95 -1365.96 3063.2
-139.00 -1406.38 3153.8
-130.35 -1401.22 3142.3
-120.19 -1378.14 3090.5
-109.83 -1349.35 3026.0
-102.82 -1360.45 3050.8
-79.21 -1362.34 3055.1
-70.18 -1341.24 3007.8
-64.05 -1377.13 3088.3
-47.63 -1365.43 3062.0
-38.39 -1320.68 2961.7
-30.36 -1305.64 2927.9
-22.92 -1313.81 2946.3
-15.82 -1360.67 3051.3
-8.01 -1378.19 3090.6
0.00 -1390.41 3118.0
39.28 -1351.22 3030.1
47.42 -1359.32 3048.3
55.42 -1361.72 3053.7
61.61 -1324.61 2970.5
68.31 -1305.40 2927.4
77.31 -1329.76 2982.0
85.90 -1343.12 3012.0
92.31 -1323.09 2967.1
99.47 -1316.07 2951.3
108.44 -1332.26 2987.6
117.38 -1345.99 3018.4
126.37 -1358.49 3046.4
132.49 -1340.46 3006.0
137.12 -1310.21 2938.2
147.55 -1335.71 2995.4
167.07 -1368.36 3068.6
169.28 -1323.46 2967.9
174.67 -1306.21 2929.2
180.48 -1293.43 2900.6
204.16 -1300.60 2916.6
217.25 -1334.54 2992.7
219.70 -1303.04 2922.1
223.91 -1283.73 2878.8
233.97 -1298.14 2911.1
264.29 -1298.81 2912.6
274.85 -1313.16 2944.8
285.57 -1327.50 2976.9
287.40 -1300.85 2917.2
306.82 -1319.35 2958.7
324.47 -1361.21 3052.5
325.78 -1334.15 2991.9
319.78 -1279.13 2868.5
354.71 -1298.09 2911.0
364.87 -1307.47 2932.0
372.72 -1308.33 2934.0
373.29 -1284.11 2879.6
426.94 -1288.32 2889.1
437.02 -1295.98 2906.3
442.89 -1291.13 2895.4
451.93 -1295.54 2905.3
450.16 -1269.31 2846.5
459.13 -1273.72 2856.4
489.69 -1336.93 2998.1
491.00 -1319.55 2959.1
533.80 -1257.73 2820.5
545.56 -1268.06 2843.6
548.51 -1257.92 2820.9
559.32 -1265.82 2838.6
562.49 -1256.48 2817.7
576.82 -1271.97 2852.4
595.00 -1295.45 2905.1
585.52 -1258.88 2823.1
613.13 -1255.45 2815.4
621.92 -1258.47 2822.2
635.93 -1271.86 2852.2
659.97 -1304.78 2926.0
680.71 -1330.48 2983.6
683.58 -1321.08 2962.5
677.59 -1294.95 2904.0
690.90 -1305.87 2928.4
725.98 -1314.40 2947.6
746.77 -1324.17 2969.5
716.78 -1258.02 2821.1
715.50 -1243.09 2787.7
748.15 -1286.82 2885.7
752.67 -1281.77 2874.4
788.59 -1304.21 2924.7
801.04 -1312.18 2942.6
773.17 -1254.57 2813.4
774.86 -1245.58 2793.2
785.87 -1251.58 2806.7
801.20 -1264.27 2835.2
825.72 -1291.13 2895.4
831.99 -1289.20 2891.1
810.02 -1243.97 2789.6
816.00 -1242.05 2785.3
841.24 -1269.23 2846.3
832.61 -1245.29 2792.6
835.10 -1238.26 2776.8
851.94 -1252.42 2808.6
861.92 -1256.36 2817.4
885.51 -1279.89 2870.2
894.85 -1282.62 2876.3
874.20 -1242.67 2786.7
879.76 -1240.32 2781.5
916.05 -1280.99 2872.6
924.32 -1282.12 2875.2
928.91 -1278.18 2866.3
931.73 -1271.89 2852.2
906.26 -1227.38 2752.4
953.37 -1251.75 2807.1
987.15 -1286.28 2884.5
1005.37 -1300.18 2915.7
956.89 -1228.25 2754.4
998.23 -1235.22 2770.0
1013.20 -1244.79 2791.5
1017.81 -1241.59 2784.3
1017.93 -1232.98 2765.0
1026.93 -1235.19 2769.9
1059.30 -1231.07 2760.7
1088.62 -1256.66 2818.1
1100.47 -1261.87 2829.8
1120.10 -1275.88 2861.2
1096.20 -1240.43 2781.7
1113.22 -1235.31 2770.2
1103.95 -1217.17 2729.5
1103.55 -1208.98 2711.2
1116.37 -1215.29 2725.3
1114.81 -1205.96 2704.4
1143.62 -1229.39 2756.9
1155.56 -1234.51 2768.4
1145.35 -1216.05 2727.0
1168.14 -1217.69 2730.7
1197.68 -1240.97 2782.9
1175.98 -1211.19 2716.1
1176.52 -1204.53 2701.2
1219.71 -1241.36 2783.8
1213.97 -1228.25 2754.4
1218.69 -1218.69 2732.9
1250.16 -1242.93 2787.3
1212.91 -1198.97 2688.7
1250.43 -1215.11 2724.9
1285.56 -1242.23 2785.7
1291.69 -1241.18 2783.4
1329.16 -1270.09 2848.2
1316.50 -1251.04 2805.5
1304.22 -1193.22 2675.8
1389.11 -1212.82 2719.8
1382.58 -1201.03 2693.3
-614.75 -1363.49 3040.0
-615.37 -1382.58 3082.6
-567.51 -1363.60 3040.2
-348.04 -1338.02 2983.2
-346.71 -1363.18 3039.3
-339.92 -1367.58 3049.1
-336.64 -1386.64 3091.6
-283.24 -1361.12 3034.7
-269.90 -1334.06 2974.4
-270.09 -1374.29 3064.1
-264.92 -1388.83 3096.5
-254.83 -1377.65 3071.6
-246.17 -1373.81 3063.0
-238.42 -1374.86 3065.3
-229.14 -1366.92 3047.6
-228.21 -1410.02 3143.7
-201.78 -1396.34 3113.2
-188.64 -1359.76 3031.7
-179.06 -1346.86 3002.9
-173.69 -1365.83 3045.2
-140.26 -1348.04 3005.5
-129.79 -1320.78 2944.8
-124.96 -1351.16 3012.5
-118.08 -1361.91 3036.5
-109.49 -1353.03 3016.7
-104.08 -1385.03 3088.0
-95.20 -1372.45 3060.0
-76.17 -1317.79 2938.1
-70.79 -1360.82 3034.0
-63.03 -1362.94 3038.7
-55.33 -1367.49 3048.9
-46.86 -1351.18 3012.5
-38.78 -1341.80 2991.6
-30.75 -1329.97 2965.3
-23.35 -1346.78 3002.7
15.45 -1336.56 2980.0
30.71 -1328.33 2961.6
38.65 -1337.30 2981.6
48.12 -1387.59 3093.7
62.65 -1354.75 3020.5
67.77 -1302.73 2904.5
77.38 -1338.66 2984.6
86.62 -1362.31 3037.4
91.91 -1325.00 2954.2
97.16 -1293.00 2882.8
107.04 -1322.76 2949.2
117.09 -1350.46 3010.9
127.31 -1376.52 3069.0
135.17 -1375.57 3066.9
140.13 -1346.82 3002.8
150.42 -1369.57 3053.5
169.32 -1331.50 2968.7
172.71 -1299.05 2896.3
180.25 -1299.29 2896.9
186.02 -1287.27 2870.0
204.99 -1313.44 2928.4
229.82 -1371.01 3056.7
226.88 -1308.32 2917.0
260.74 -1288.79 2873.4
267.29 -1284.46 2863.8
274.48 -1283.38 2861.4
281.93 -1283.52 2861.7
288.09 -1277.95 2849.3
302.39 -1307.82 2915.9
315.28 -1330.34 2966.1
321.71 -1325.14 2954.5
320.79 -1290.63 2877.5
332.69 -1279.02 2851.6
350.93 -1319.78 2942.5
364.43 -1341.41 2990.8
371.30 -1338.21 2983.6
374.67 -1322.81 2949.3
382.21 -1322.45 2948.5
384.24 -1303.39 2906.0
382.50 -1272.56 2837.2
429.74 -1304.31 2908.0
426.82 -1273.09 2838.4
465.79 -1279.07 2851.8
488.74 -1321.11 2945.5
490.27 -1304.87 2909.3
484.37 -1269.63 2830.7
549.01 -1283.50 2861.7
570.71 -1316.43 2935.1
569.76 -1296.96 2891.7
559.64 -1257.37 2803.4
600.03 -1265.92 2822.4
620.76 -1293.87 2884.8
622.30 -1281.65 2857.5
619.96 -1261.81 2813.3
641.72 -1290.90 2878.1
671.11 -1319.34 2941.6
647.31 -1258.25 2805.3
656.59 -1248.24 2783.0
672.83 -1265.22 2820.9
683.25 -1270.99 2833.8
706.97 -1301.12 2900.9
727.28 -1324.42 2952.9
721.06 -1299.40 2897.1
703.02 -1241.05 2767.0
744.94 -1301.77 2902.4
747.70 -1293.51 2884.0
723.40 -1239.09 2762.6
769.83 -1293.02 2882.9
785.48 -1306.62 2913.2
753.55 -1241.56 2768.1
784.49 -1245.11 2776.0
808.61 -1271.72 2835.4
812.69 -1266.63 2824.0
829.28 -1258.47 2805.8
832.38 -1252.19 2791.8
858.16 -1247.58 2781.5
860.19 -1240.11 2764.9
888.32 -1239.34 2763.2
943.11 -1305.27 2910.2
940.05 -1290.70 2877.7
906.90 -1235.38 2754.4
962.00 -1270.43 2832.5
966.91 -1267.23 2825.4
953.77 -1240.61 2766.0
964.21 -1244.84 2775.5
955.53 -1224.50 2730.1
992.88 -1263.01 2815.9
1024.09 -1283.82 2862.4
997.54 -1232.68 2748.3
1020.41 -1251.99 2791.4
1027.37 -1209.09 2695.7
1039.88 -1215.54 2710.1
1058.73 -1221.06 2722.4
1090.22 -1249.06 2784.8
1102.03 -1254.28 2796.5
1087.34 -1229.47 2741.2
1090.20 -1209.00 2695.5
1169.11 -1288.25 2872.2
1163.04 -1273.46 2839.2
1138.86 -1239.14 2762.7
1145.84 -1238.94 2762.3
1135.72 -1220.37 2720.9
1141.16 -1218.65 2717.1
1148.74 -1219.21 2718.3
1157.57 -1206.39 2689.7
1249.41 -1221.17 2722.7
1239.10 -1204.30 2685.1
1318.61 -1213.40 2705.4
1299.56 -1189.55 2652.2
1374.70 -1201.12 2678.0
1465.71 -1201.75 2679.4
1445.71 -1179.76 2630.3
-446.10 -1338.30 2966.7
-445.76 -1360.73 3016.4
-435.71 -1353.81 3001.1
-399.70 -1337.46 2964.8
-350.61 -1386.52 3073.6
-351.02 -1420.39 3148.7
-293.05 -1416.42 3139.9
-273.10 -1357.69 3009.7
-268.07 -1371.89 3041.1
-263.66 -1390.18 3081.7
-254.81 -1385.51 3071.3
-243.89 -1368.94 3034.6
-233.80 -1356.05 3006.0
-230.28 -1381.70 3062.9
-198.23 -1379.66 3058.4
-188.34 -1365.48 3026.9
-180.19 -1363.19 3021.9
-176.01 -1392.11 3086.0
-133.23 -1363.70 3023.0
-125.11 -1360.53 3016.0
-119.49 -1386.13 3072.7
-112.36 -1396.52 3095.7
-103.76 -1388.81 3078.6
-91.87 -1332.19 2953.1
-77.28 -1344.68 2980.8
-72.13 -1394.50 3091.3
-56.16 -1395.86 3094.3
-47.18 -1368.36 3033.3
-39.82 -1385.67 3071.7
-23.91 -1386.97 3074.6
-16.04 -1395.21 3092.8
0.00 -1369.73 3036.3
7.99 -1390.70 3082.8
15.62 -1359.02 3012.6
38.83 -1351.13 2995.1
69.19 -1337.76 2965.5
77.82 -1354.14 3001.8
86.67 -1370.91 3039.0
90.91 -1318.21 2922.1
119.59 -1300.54 2883.0
131.35 -1344.38 2980.2
141.02 -1363.15 3021.8
146.91 -1345.35 2982.3
155.19 -1350.13 2992.9
161.29 -1336.42 2962.5
185.19 -1288.94 2857.3
193.92 -1297.79 2876.9
205.30 -1323.04 2932.8
221.06 -1373.72 3045.2
229.06 -1328.56 2945.1
232.35 -1304.14 2891.0
236.48 -1285.87 2850.5
242.43 -1278.26 2833.6
256.54 -1312.86 2910.3
265.76 -1321.22 2928.8
267.28 -1291.87 2863.7
275.09 -1293.65 2867.7
283.00 -1295.84 2872.6
294.47 -1280.96 2839.6
312.86 -1327.74 2943.3
324.17 -1342.98 2977.1
326.75 -1322.21 2931.0
330.13 -1305.53 2894.0
331.84 -1283.13 2844.4
338.27 -1279.54 2836.4
355.58 -1316.40 2918.1
366.32 -1327.91 2943.6
370.17 -1314.48 2913.9
378.09 -1315.75 2916.7
387.22 -1321.10 2928.6
393.97 -1318.28 2922.3
394.10 -1293.83 2868.1
393.06 -1266.53 2807.6
400.86 -1268.19 2811.2
418.13 -1299.19 2880.0
430.27 -1313.46 2911.6
448.60 -1279.61 2836.6
472.91 -1327.19 2942.0
465.50 -1285.65 2850.0
505.51 -1274.76 2825.8
521.13 -1295.38 2871.5
549.05 -1273.80 2823.7
561.45 -1285.42 2849.5
557.50 -1259.81 2792.7
564.69 -1259.69 2792.4
598.24 -1254.13 2780.1
605.56 -1254.38 2780.6
626.98 -1268.54 2812.0
653.92 -1307.83 2899.1
644.02 -1273.40 2822.8
647.53 -1265.96 2806.3
667.18 -1289.89 2859.4
659.55 -1261.12 2795.6
682.02 -1262.47 2798.6
691.56 -1266.65 2807.8
732.87 -1288.07 2855.3
744.02 -1294.59 2869.8
743.40 -1280.71 2839.0
774.26 -1320.80 2927.9
789.78 -1321.36 2929.1
757.68 -1255.58 2783.3
772.82 -1245.11 2760.1
782.53 -1249.18 2769.1
794.29 -1256.42 2785.2
828.45 -1298.65 2878.8
833.38 -1294.72 2870.1
811.17 -1249.06 2768.9
828.01 -1263.81 2801.5
843.96 -1276.94 2830.7
838.89 -1258.33 2789.4
847.74 -1260.74 2794.7
860.38 -1268.69 2812.4
856.03 -1251.68 2774.7
910.02 -1276.96 2830.7
936.64 -1293.45 2867.3
905.80 -1241.02 2751.0
949.91 -1261.72 2796.9
958.31 -1263.23 2800.3
934.33 -1222.36 2709.7
972.73 -1244.53 2758.8
976.52 -1222.40 2709.8
991.02 -1231.69 2730.4
1029.00 -1269.84 2814.9
1015.84 -1244.76 2759.3
1016.01 -1210.86 2684.2
1022.55 -1210.36 2683.1
1028.09 -1208.70 2679.4
1053.32 -1213.76 2690.6
1064.91 -1219.04 2702.3
1085.05 -1233.97 2735.4
1074.55 -1214.10 2691.4
1084.43 -1209.55 2681.3
1133.32 -1240.24 2749.3
1118.34 -1216.20 2696.0
1124.45 -1215.24 2693.9
1144.84 -1229.65 2725.8
1152.80 -1230.59 2727.9
1240.44 -1226.35 2718.5
1227.92 -1207.11 2675.9
1347.65 -1190.31 2638.6
1385.47 -1217.54 2699.0
1373.33 -1200.80 2661.9
1969.19 -1127.10 2498.5
1978.14 -1128.51 2501.6
-710.40 -1366.16 3011.1
-446.35 -1346.75 2968.4
-450.00 -1381.57 3045.1
-437.26 -1366.44 3011.7
-419.92 -1336.12 2944.9
-412.16 -1335.70 2944.0
-411.72 -1359.46 2996.4
-415.16 -1397.17 3079.5
-409.56 -1405.36 3097.5
-393.32 -1376.62 3034.2
-384.06 -1371.66 3023.2
-379.82 -1384.75 3052.1
-361.97 -1347.74 2970.5
-356.77 -1387.46 3058.1
-353.38 -1405.47 3097.8
-338.56 -1377.86 3036.9
-333.13 -1388.05 3059.4
-321.52 -1372.33 3024.7
-308.20 -1348.36 2971.9
-301.84 -1354.42 2985.2
-295.95 -1362.94 3004.0
-288.22 -1363.22 3004.6
-287.77 -1398.90 3083.3
-283.13 -1415.65 3120.2
-253.81 -1388.01 3059.3
-225.48 -1360.68 2999.1
-224.74 -1404.60 3095.8
-216.30 -1401.92 3090.0
-205.31 -1381.92 3045.9
-195.38 -1367.68 3014.5
-186.24 -1357.97 2993.1
-178.88 -1361.03 2999.8
-172.32 -1370.69 3021.1
-166.58 -1388.19 3059.7
-157.44 -1377.62 3036.4
-150.08 -1382.31 3046.7
-126.16 -1379.82 3041.2
-116.90 -1363.84 3006.0
-109.74 -1371.79 3023.5
-100.81 -1357.03 2991.0
-91.90 -1340.19 2953.9
-84.82 -1349.36 2974.1
-78.69 -1377.12 3035.3
-71.78 -1395.78 3076.4
-55.94 -1398.38 3082.1
-47.32 -1380.25 3042.2
-7.97 -1394.02 3072.5
0.00 -1373.78 3027.9
23.65 -1379.53 3040.6
30.94 -1353.48 2983.2
55.04 -1376.07 3033.0
62.77 -1373.12 3026.5
70.76 -1375.95 3032.7
76.17 -1332.92 2937.9
88.67 -1293.11 2850.1
96.11 -1293.84 2851.7
134.98 -1312.28 2892.4
141.52 -1303.47 2873.0
149.24 -1305.81 2878.1
154.60 -1288.33 2839.6
185.19 -1296.33 2857.2
194.96 -1312.23 2892.3
207.45 -1344.61 2963.6
210.75 -1317.20 2903.2
242.35 -1285.19 2832.7
249.97 -1286.60 2835.8
278.74 -1318.36 2905.8
285.05 -1312.73 2893.4
284.33 -1275.84 2812.0
300.42 -1282.26 2826.2
308.26 -1284.44 2831.0
329.20 -1280.22 2821.7
348.74 -1271.44 2802.4
355.79 -1270.69 2800.7
366.12 -1281.42 2824.4
378.60 -1299.12 2863.4
385.31 -1296.70 2858.0
384.90 -1270.91 2801.2
399.45 -1270.98 2801.3
415.11 -1297.21 2859.2
425.59 -1306.64 2879.9
434.68 -1311.55 2890.8
447.97 -1328.73 2928.6
447.00 -1303.75 2873.6
456.72 -1310.27 2887.9
483.30 -1342.49 2958.9
462.41 -1264.40 2786.8
477.14 -1265.14 2788.5
481.38 -1257.34 2771.3
524.22 -1310.56 2888.6
526.71 -1298.24 2861.4
532.75 -1294.88 2854.0
530.77 -1272.39 2804.4
557.60 -1301.07 2867.7
568.87 -1309.89 2887.1
563.77 -1281.30 2824.1
577.38 -1295.40 2855.2
583.43 -1292.41 2848.6
589.82 -1290.23 2843.8
595.81 -1287.24 2837.2
651.04 -1280.13 2821.5
674.35 -1282.72 2827.2
662.04 -1245.77 2745.8
674.46 -1255.64 2767.5
676.48 -1246.14 2746.6
703.51 -1243.58 2741.0
738.51 -1292.39 2848.5
762.43 -1321.04 2911.7
761.61 -1306.68 2880.0
751.88 -1277.47 2815.6
781.25 -1289.80 2842.8
771.77 -1262.24 2782.1
783.98 -1270.33 2799.9
780.32 -1252.81 2761.3
787.78 -1253.29 2762.4
815.53 -1285.74 2833.9
850.65 -1305.83 2878.1
838.74 -1276.34 2813.2
820.17 -1237.32 2727.2
838.67 -1243.78 2741.4
848.50 -1247.79 2750.2
845.56 -1233.11 2717.9
887.66 -1262.94 2783.6
919.88 -1298.22 2861.4
911.99 -1276.79 2814.1
929.24 -1290.62 2844.6
929.98 -1281.47 2824.5
910.95 -1245.44 2745.0
933.11 -1246.52 2747.4
946.75 -1255.16 2766.5
929.61 -1223.17 2696.0
945.62 -1234.95 2721.9
953.24 -1235.69 2723.6
960.95 -1218.60 2685.9
1003.47 -1245.44 2745.0
1035.93 -1276.68 2813.9
1027.45 -1257.37 2771.3
1023.96 -1218.99 2686.8
1058.29 -1210.46 2668.0
1103.36 -1253.82 2763.5
1118.96 -1263.34 2784.5
1088.71 -1205.85 2657.8
1096.51 -1206.85 2660.0
1138.87 -1230.26 2711.6
1157.93 -1243.17 2740.1
1236.64 -1195.64 2635.3
1269.58 -1214.08 2675.9
1290.96 -1227.81 2706.2
1312.46 -1241.52 2736.4
1279.41 -1203.75 2653.2
1294.90 -1186.43 2615.0
1332.65 -1183.83 2609.3
1343.71 -1187.62 2617.6
1641.38 -1191.87 2627.0
1881.11 -1163.23 2563.9
1878.46 -1157.50 2551.2
1963.07 -1133.78 2499.0
1970.26 -1134.20 2499.9
1969.86 -1130.25 2491.2
1984.64 -1135.01 2501.7
1975.40 -1126.04 2481.9
-467.11 -1347.72 2953.6
-444.16 -1347.80 2953.8
-440.77 -1360.98 2982.7
-418.88 -1340.41 2937.6
-426.29 -1389.40 3044.9
-420.01 -1394.75 3056.7
-417.32 -1412.46 3095.5
-412.15 -1422.33 3117.1
-395.40 -1391.81 3050.2
-375.77 -1349.71 2958.0
-358.31 -1341.76 2940.5
-357.90 -1369.34 3001.0
-355.59 -1390.74 3047.9
-341.27 -1365.06 2991.6
-269.94 -1357.40 2974.8
-267.55 -1384.97 3035.2
-258.72 -1379.85 3024.0
-209.82 -1318.88 2890.4
-208.14 -1356.78 2973.5
-203.40 -1376.87 3017.5
-194.49 -1369.19 3000.7
-186.45 -1367.30 2996.5
-180.17 -1378.67 3021.4
-175.10 -1400.81 3070.0
-168.10 -1408.86 3087.6
-157.19 -1383.31 3031.6
-151.46 -1402.95 3074.7
-126.33 -1389.67 3045.5
-117.21 -1375.27 3014.0
-110.26 -1386.17 3037.9
-99.85 -1351.83 2962.6
-89.89 -1318.32 2889.2
-84.11 -1345.79 2949.4
-79.21 -1394.01 3055.1
-71.50 -1398.23 3064.3
-63.60 -1399.13 3066.3
-39.21 -1380.19 3024.8
-30.43 -1339.13 2934.8
-23.10 -1354.93 2969.4
7.89 -1388.58 3043.2
15.36 -1352.04 2963.1
22.68 -1330.43 2915.7
29.99 -1319.62 2892.0
37.98 -1337.02 2930.2
45.37 -1330.75 2916.4
52.17 -1311.61 2874.5
60.50 -1331.06 2917.1
68.72 -1343.86 2945.2
74.16 -1305.20 2860.4
96.45 -1305.78 2861.7
104.49 -1313.56 2878.7
111.48 -1308.06 2866.7
118.87 -1307.54 2865.5
125.76 -1302.02 2853.5
132.13 -1291.94 2831.4
139.05 -1288.08 2822.9
146.92 -1292.91 2833.5
157.61 -1320.96 2895.0
165.72 -1325.78 2905.5
172.42 -1319.40 2891.5
183.12 -1342.85 2942.9
186.78 -1314.90 2881.7
197.34 -1286.35 2819.1
244.05 -1301.62 2852.6
250.28 -1295.59 2839.4
265.92 -1300.05 2849.1
272.38 -1295.65 2839.5
289.58 -1274.16 2792.4
354.07 -1271.77 2787.2
367.99 -1295.34 2838.8
380.74 -1313.94 2879.6
388.34 -1314.39 2880.6
403.51 -1339.96 2936.6
415.53 -1329.70 2914.1
414.71 -1303.37 2856.4
430.11 -1328.07 2910.5
443.62 -1346.16 2950.2
453.01 -1307.05 2864.5
455.07 -1291.82 2831.1
474.60 -1325.87 2905.7
477.94 -1314.33 2880.4
477.51 -1292.94 2833.6
490.99 -1309.30 2869.4
497.00 -1305.55 2861.2
492.20 -1273.92 2791.9
499.94 -1256.99 2754.8
523.48 -1262.08 2765.9
539.72 -1283.66 2813.2
559.69 -1313.40 2878.4
563.74 -1305.51 2861.1
568.78 -1267.15 2777.0
589.64 -1297.20 2842.9
603.69 -1311.72 2874.7
591.32 -1269.17 2781.5
597.43 -1251.76 2743.3
602.69 -1247.93 2734.9
609.11 -1246.55 2731.9
649.53 -1270.20 2783.7
679.52 -1314.23 2880.2
666.72 -1275.46 2795.2
694.32 -1246.94 2732.8
700.81 -1245.89 2730.4
703.16 -1237.56 2712.2
736.47 -1283.35 2812.5
745.23 -1285.89 2818.1
734.19 -1254.54 2749.4
775.46 -1312.32 2876.0
793.33 -1304.91 2859.8
778.82 -1269.18 2781.5
810.23 -1308.26 2867.1
820.35 -1300.74 2850.7
799.43 -1256.24 2753.1
832.62 -1296.82 2842.1
850.40 -1312.89 2877.3
835.62 -1278.86 2802.7
813.62 -1234.45 2705.4
838.27 -1239.80 2717.1
853.24 -1251.42 2742.6
869.70 -1265.01 2772.4
894.59 -1290.55 2828.3
881.01 -1260.64 2762.8
888.81 -1241.52 2720.9
919.10 -1273.72 2791.4
930.65 -1279.65 2804.4
919.88 -1235.87 2708.5
957.80 -1277.06 2798.8
951.18 -1240.06 2717.7
954.21 -1234.87 2706.3
986.45 -1240.11 2717.8
1001.95 -1250.66 2740.9
1003.58 -1243.87 2726.0
1022.39 -1258.33 2757.7
1038.97 -1219.06 2671.6
1064.58 -1240.83 2719.4
1048.22 -1213.73 2660.0
1058.06 -1217.11 2667.4
1090.80 -1246.63 2732.1
1115.02 -1257.98 2756.9
1127.91 -1225.38 2685.5
1167.35 -1260.45 2762.3
1151.21 -1235.45 2707.6
1147.84 -1209.70 2651.1
1161.52 -1216.83 2666.8
1179.29 -1206.72 2644.6
1216.15 -1237.24 2711.5
1200.84 -1194.06 2616.8
1239.54 -1205.30 2641.5
1290.30 -1247.76 2734.5
1257.04 -1208.96 2649.5
1261.79 -1200.41 2630.8
1257.87 -1190.25 2608.5
1349.41 -1181.58 2589.5
1383.27 -1205.23 2641.3
-474.73 -1355.28 2953.4
-468.65 -1359.86 2963.4
-439.40 -1340.93 2922.1
-436.49 -1355.41 2953.7
-425.69 -1345.49 2932.1
-432.87 -1393.05 3035.7
-436.74 -1431.53 3119.6
-425.43 -1420.77 3096.1
-413.02 -1405.86 3063.6
-397.91 -1381.00 3009.4
-388.35 -1374.75 2995.8
-375.29 -1355.65 2954.2
-303.75 -1344.10 2929.0
-305.37 -1385.93 3020.2
-298.14 -1388.72 3026.3
-285.75 -1366.98 2978.9
-270.82 -1331.52 2901.6
-258.67 -1346.58 2934.4
-251.49 -1348.91 2939.5
-223.81 -1320.49 2877.6
-217.95 -1330.28 2898.9
-210.74 -1332.15 2903.0
-205.84 -1349.42 2940.6
-199.72 -1359.61 2962.8
-189.47 -1341.48 2923.3
-184.35 -1359.57 2962.7
-181.07 -1393.48 3036.6
-166.34 -1338.26 2916.3
-150.73 -1333.98 2907.0
-126.74 -1402.03 3055.3
-111.05 -1403.93 3059.4
-98.04 -1334.84 2908.8
-91.97 -1356.61 2956.3
-54.57 -1379.90 3007.1
-46.88 -1382.87 3013.5
-38.38 -1358.73 2960.9
-30.67 -1357.09 2957.3
-15.73 -1391.75 3032.9
-7.54 -1333.79 2906.6
0.00 -1341.72 2923.8
7.51 -1328.79 2895.7
14.92 -1320.02 2876.6
22.55 -1330.43 2899.2
30.36 -1343.33 2927.4
38.83 -1374.57 2995.4
45.66 -1347.01 2935.4
51.46 -1301.09 2835.3
73.90 -1307.99 2850.3
83.93 -1350.44 2942.9
88.72 -1308.67 2851.8
146.26 -1294.41 2820.7
158.84 -1338.83 2917.5
165.35 -1330.34 2899.0
170.14 -1309.35 2853.3
183.33 -1352.07 2946.4
189.77 -1343.56 2927.9
188.65 -1284.26 2798.6
217.89 -1285.54 2801.4
227.81 -1300.72 2834.5
239.85 -1326.69 2891.1
252.27 -1353.07 2948.6
260.58 -1356.56 2956.2
266.72 -1348.82 2939.3
267.86 -1316.97 2869.9
281.03 -1275.45 2779.4
292.21 -1293.03 2817.7
297.14 -1282.78 2795.4
311.11 -1311.13 2857.2
320.77 -1320.36 2877.3
320.21 -1288.10 2807.0
329.41 -1295.67 2823.5
332.87 -1280.83 2791.2
347.28 -1280.59 2790.6
361.30 -1305.11 2844.1
372.08 -1317.18 2870.4
380.97 -1322.20 2881.3
389.43 -1325.55 2888.6
404.86 -1352.07 2946.4
400.22 -1287.99 2806.8
407.38 -1287.60 2805.9
430.10 -1335.57 2910.4
431.68 -1317.38 2870.8
439.12 -1317.37 2870.8
456.50 -1346.68 2934.7
453.43 -1315.69 2867.1
460.18 -1272.69 2773.4
481.59 -1311.41 2857.8
492.21 -1320.01 2876.5
495.12 -1308.00 2850.4
488.25 -1270.87 2769.5
500.44 -1265.40 2757.5
513.50 -1280.14 2789.6
543.49 -1282.64 2795.1
563.74 -1312.91 2861.1
563.42 -1295.13 2822.3
553.15 -1255.22 2735.3
561.47 -1257.97 2741.3
599.39 -1263.00 2752.3
618.62 -1288.19 2807.2
617.47 -1270.85 2769.4
649.53 -1263.37 2753.1
657.20 -1264.39 2755.3
690.29 -1259.61 2744.9
695.48 -1256.11 2737.3
734.39 -1287.01 2804.6
761.13 -1320.79 2878.2
767.24 -1318.46 2873.2
746.66 -1270.75 2769.2
740.94 -1249.01 2721.8
769.63 -1285.14 2800.5
775.24 -1282.40 2794.6
760.34 -1246.11 2715.5
789.83 -1282.57 2795.0
814.26 -1286.82 2804.2
835.20 -1308.23 2850.9
843.49 -1298.24 2829.1
820.78 -1252.40 2729.2
835.87 -1232.91 2686.7
847.80 -1240.16 2702.5
883.46 -1241.05 2704.5
928.89 -1294.59 2821.1
935.30 -1293.35 2818.4
961.99 -1289.94 2811.0
953.38 -1268.78 2764.9
924.97 -1221.79 2662.5
939.12 -1231.29 2683.2
958.55 -1247.53 2718.6
967.40 -1249.85 2723.6
990.03 -1242.81 2708.3
996.14 -1215.98 2649.8
1016.60 -1232.46 2685.7
1026.75 -1236.29 2694.1
1025.41 -1226.33 2672.4
1034.56 -1228.97 2678.1
1065.72 -1257.56 2740.4
1056.61 -1238.55 2699.0
1047.31 -1219.56 2657.6
1062.56 -1229.24 2678.7
1085.76 -1247.92 2719.4
1127.66 -1287.72 2806.2
1121.31 -1272.25 2772.5
1069.34 -1205.56 2627.1
1083.00 -1213.24 2643.9
1107.96 -1233.39 2687.8
1107.01 -1224.63 2668.7
1132.57 -1245.12 2713.3
1110.54 -1213.36 2644.1
1161.27 -1223.48 2666.2
1145.41 -1199.63 2614.2
1192.57 -1227.24 2674.4
1197.41 -1211.10 2639.2
1205.17 -1212.01 2641.2
1209.47 -1202.68 2620.9
1215.63 -1202.05 2619.5
1232.86 -1198.99 2612.8
1257.24 -1196.41 2607.2
1268.90 -1188.33 2589.6
1365.84 -1196.80 2608.0
1360.55 -1186.30 2585.2
1755.71 -1181.60 2574.9
1719.85 -1153.08 2512.8
-461.09 -1345.49 2915.6
-435.53 -1360.09 2947.2
-431.29 -1370.89 2970.6
-429.11 -1388.76 3009.3
-422.57 -1392.91 3018.3
-412.64 -1385.83 3003.0
-401.44 -1374.17 2977.7
-396.58 -1384.13 2999.3
-397.44 -1414.89 3066.0
-390.17 -1417.35 3071.3
-366.81 -1360.27 2947.6
-346.44 -1340.56 2904.9
-355.63 -1406.73 3048.3
-332.16 -1407.73 3050.5
-319.04 -1385.11 3001.5
-308.61 -1373.32 2975.9
-285.92 -1413.72 3063.4
-267.11 -1358.45 2943.7
-258.49 -1353.28 2932.5
-251.94 -1358.96 2944.8
-239.24 -1330.79 2883.7
-225.35 -1337.10 2897.4
-221.83 -1361.56 2950.4
-217.30 -1381.43 2993.5
-211.67 -1395.44 3023.8
-203.86 -1395.64 3024.3
-193.22 -1375.76 2981.2
-188.28 -1396.45 3026.0
-170.67 -1380.90 2992.3
-143.56 -1344.95 2914.4
-136.32 -1348.02 2921.1
-133.31 -1395.88 3024.8
-105.93 -1346.82 2918.5
-95.92 -1313.42 2846.1
-92.42 -1370.89 2970.6
-61.44 -1367.01 2962.2
-53.10 -1350.30 2926.0
-45.91 -1362.08 2951.5
-37.91 -1349.56 2924.4
-30.70 -1365.93 2959.9
-15.58 -1386.93 3005.4
-7.62 -1356.77 2940.0
0.00 -1389.04 3010.0
7.83 -1393.64 3019.9
53.50 -1360.36 2947.8
59.16 -1316.31 2852.4
99.56 -1363.26 2954.1
119.42 -1328.59 2879.0
127.00 -1329.73 2881.4
133.01 -1315.37 2850.3
139.41 -1306.02 2830.1
146.92 -1307.56 2833.4
155.28 -1316.20 2852.1
173.90 -1289.77 2794.8
190.52 -1356.52 2939.5
200.31 -1371.39 2971.7
204.12 -1345.68 2916.0
208.89 -1327.91 2877.5
224.46 -1288.82 2792.8
240.67 -1338.73 2900.9
243.73 -1314.68 2848.8
279.76 -1310.48 2839.7
285.42 -1302.69 2822.8
286.39 -1274.46 2761.7
310.61 -1316.41 2852.6
321.76 -1331.95 2886.2
321.44 -1300.37 2817.8
329.40 -1302.97 2823.5
331.69 -1283.48 2781.2
349.97 -1297.81 2812.3
359.69 -1306.63 2831.4
366.11 -1303.36 2824.3
373.93 -1305.08 2828.0
379.69 -1299.72 2816.4
380.08 -1276.48 2766.1
399.27 -1269.11 2750.1
431.94 -1348.87 2922.9
432.78 -1305.69 2829.3
433.13 -1284.94 2784.4
448.73 -1309.40 2837.4
452.32 -1298.60 2814.0
446.11 -1260.44 2731.3
463.17 -1288.18 2791.4
484.76 -1327.49 2876.6
496.49 -1339.03 2901.6
490.75 -1303.78 2825.2
487.39 -1257.33 2724.6
520.28 -1323.01 2866.9
533.40 -1318.69 2857.5
524.51 -1278.94 2771.4
536.12 -1289.58 2794.4
549.75 -1304.75 2827.3
559.85 -1311.23 2841.4
559.14 -1292.55 2800.9
558.19 -1257.69 2725.3
563.35 -1253.45 2716.1
610.39 -1278.22 2769.8
617.68 -1278.46 2770.3
610.93 -1249.96 2708.6
638.16 -1262.13 2735.0
647.03 -1265.63 2742.5
644.09 -1246.17 2700.4
649.70 -1243.52 2694.6
680.46 -1261.69 2734.0
701.00 -1286.37 2787.5
686.06 -1246.11 2700.2
728.62 -1284.10 2782.6
749.92 -1308.68 2835.8
754.74 -1304.31 2826.4
732.41 -1253.55 2716.4
739.38 -1241.60 2690.5
771.59 -1283.58 2781.4
782.80 -1290.17 2795.7
806.75 -1317.45 2854.8
778.07 -1236.58 2679.6
801.27 -1262.18 2735.1
825.51 -1288.96 2793.1
818.15 -1266.36 2744.1
883.94 -1238.90 2684.6
886.23 -1222.86 2649.9
911.24 -1247.70 2703.7
914.70 -1242.87 2693.2
932.34 -1257.25 2724.4
971.64 -1300.39 2817.9
958.27 -1263.50 2737.9
932.09 -1219.94 2643.5
973.23 -1255.32 2720.2
997.54 -1268.30 2748.3
984.74 -1243.15 2693.8
998.00 -1251.02 2710.9
983.26 -1223.92 2652.2
983.65 -1215.90 2634.8
1002.37 -1230.50 2666.4
1009.86 -1231.20 2667.9
1026.83 -1243.37 2694.3
1036.02 -1246.02 2700.1
1017.43 -1215.46 2633.8
1020.18 -1210.61 2623.3
1036.93 -1222.35 2648.7
1052.79 -1232.88 2671.6
1069.09 -1243.78 2695.2
1096.06 -1266.88 2745.2
1109.54 -1274.19 2761.1
1078.28 -1230.34 2666.1
1069.46 -1212.50 2627.4
1118.32 -1259.88 2730.1
1144.51 -1281.28 2776.4
1148.35 -1277.54 2768.3
1161.72 -1284.38 2783.2
1125.26 -1236.40 2679.2
1133.08 -1207.72 2617.0
1164.70 -1234.03 2674.1
1186.95 -1250.16 2709.0
1179.63 -1235.14 2676.5
1170.30 -1218.20 2639.8
1223.94 -1217.10 2637.4
1219.20 -1205.66 2612.6
1277.03 -1235.39 2677.0
1272.77 -1205.07 2611.3
1299.15 -1223.54 2651.3
1399.93 -1180.98 2559.1
1695.04 -1151.59 2495.4
1739.20 -1177.10 2550.7
-455.04 -1380.55 2974.9
-438.42 -1353.04 2915.6
-420.56 -1344.28 2896.7
-426.51 -1388.11 2991.1
-413.47 -1370.56 2953.3
-398.26 -1345.06 2898.4
-397.17 -1367.17 2946.0
-401.31 -1408.52 3035.1
-371.05 -1383.73 2981.7
-342.33 -1332.12 2870.5
-352.34 -1401.53 3020.0
-334.10 -1423.89 3068.2
-310.19 -1354.24 2918.2
-297.63 -1331.91 2870.0
-302.13 -1386.69 2988.1
-299.16 -1409.21 3036.6
-287.10 -1388.95 2992.9
-280.07 -1392.58 3000.8
-269.15 -1376.49 2966.1
-260.95 -1373.82 2960.3
-254.48 -1380.37 2974.5
-244.64 -1368.44 2948.8
-238.12 -1374.97 2962.8
-231.26 -1379.82 2973.3
-225.28 -1390.55 2996.4
-218.54 -1397.07 3010.4
-210.57 -1396.02 3008.2
-204.82 -1410.09 3038.5
-195.32 -1398.52 3013.6
-188.83 -1408.37 3034.8
-159.72 -1361.39 2933.6
-149.17 -1335.05 2876.8
-146.72 -1382.29 2978.6
-138.09 -1373.18 2959.0
-133.66 -1407.39 3032.7
-107.90 -1379.56 2972.7
-98.24 -1352.73 2914.9
-90.10 -1343.99 2896.1
-83.99 -1366.80 2945.2
-70.36 -1399.36 3015.4
-60.79 -1360.28 2931.2
-53.82 -1376.33 2965.8
-46.32 -1381.85 2977.7
-38.08 -1363.37 2937.8
-30.16 -1349.52 2908.0
-22.91 -1367.22 2946.1
-15.22 -1362.19 2935.3
-7.61 -1361.78 2934.4
30.94 -1384.45 2983.3
37.67 -1348.64 2906.1
46.60 -1390.27 2995.8
53.63 -1371.28 2954.9
61.02 -1365.33 2942.1
68.35 -1359.37 2929.2
72.98 -1306.28 2814.8
83.99 -1366.80 2945.2
103.55 -1324.02 2853.0
112.07 -1337.38 2881.8
133.26 -1325.24 2855.7
143.95 -1288.38 2776.2
155.13 -1322.29 2849.3
160.84 -1308.68 2820.0
167.65 -1304.73 2811.5
175.82 -1311.29 2825.6
188.46 -1349.35 2907.6
199.20 -1371.43 2955.2
204.17 -1353.59 2916.7
212.36 -1357.58 2925.4
215.35 -1329.23 2864.3
216.12 -1289.54 2778.7
228.38 -1318.71 2841.6
245.31 -1372.22 2956.9
248.68 -1348.89 2906.6
269.59 -1304.24 2810.4
278.78 -1313.19 2829.7
296.18 -1293.07 2786.3
304.71 -1298.64 2798.3
306.76 -1276.97 2751.7
337.92 -1314.96 2833.5
353.33 -1317.63 2839.3
366.30 -1285.64 2770.3
370.46 -1275.25 2747.9
417.18 -1310.08 2823.0
435.85 -1345.12 2898.5
433.33 -1314.67 2832.9
425.72 -1270.06 2736.8
433.95 -1273.40 2744.0
452.46 -1306.30 2814.8
460.63 -1308.77 2820.2
463.02 -1295.00 2790.5
469.63 -1293.30 2786.8
479.30 -1299.91 2801.1
471.91 -1260.78 2716.8
496.37 -1287.69 2774.8
518.48 -1325.84 2857.0
525.03 -1323.67 2852.3
529.05 -1315.28 2834.2
532.81 -1306.47 2815.2
535.61 -1295.59 2791.8
537.24 -1282.22 2763.0
544.18 -1281.70 2761.8
540.96 -1257.56 2709.8
555.46 -1258.58 2712.0
579.27 -1296.11 2792.9
589.62 -1302.99 2807.7
605.92 -1322.68 2850.2
618.79 -1334.50 2875.6
592.24 -1262.04 2719.5
635.54 -1250.13 2693.8
643.69 -1252.40 2698.7
664.26 -1278.52 2755.0
675.39 -1286.11 2771.4
689.87 -1299.85 2801.0
710.43 -1324.66 2854.4
706.53 -1290.49 2780.8
700.28 -1253.50 2701.1
739.49 -1310.59 2824.1
739.65 -1298.02 2797.0
722.02 -1254.78 2703.8
748.36 -1288.04 2775.5
770.62 -1301.33 2804.2
771.12 -1290.00 2779.7
795.61 -1318.65 2841.5
772.37 -1245.54 2683.9
807.92 -1268.58 2733.6
825.23 -1284.49 2767.9
825.07 -1273.17 2743.5
821.34 -1256.57 2707.7
814.75 -1235.94 2663.2
830.86 -1249.78 2693.1
854.17 -1274.13 2745.5
879.64 -1301.29 2804.0
880.84 -1292.39 2784.9
876.12 -1275.00 2747.4
900.04 -1299.25 2799.7
880.49 -1260.87 2717.0
866.23 -1230.60 2651.7
887.14 -1250.38 2694.4
912.76 -1256.80 2708.2
939.19 -1283.32 2765.3
947.22 -1284.48 2767.8
939.86 -1246.19 2685.3
952.27 -1253.36 2700.8
996.03 -1301.38 2804.3
949.52 -1231.62 2653.9
992.68 -1260.21 2715.5
1018.02 -1283.28 2765.3
1019.05 -1275.59 2748.7
1017.36 -1230.45 2651.4
1019.84 -1225.18 2640.1
1018.95 -1215.94 2620.2
1032.34 -1223.77 2637.0
1059.35 -1231.32 2653.3
1089.06 -1257.68 2710.1
1078.72 -1237.76 2667.2
1090.00 -1242.74 2677.9
1105.16 -1252.05 2697.9
1094.84 -1232.55 2655.9
1118.83 -1251.69 2697.2
1150.80 -1279.46 2757.0
1130.34 -1248.96 2691.3
1102.43 -1210.64 2608.7
1107.96 -1209.29 2605.8
1126.85 -1222.46 2634.2
1125.14 -1213.26 2614.4
1128.09 -1209.16 2605.5
1139.08 -1213.67 2615.2
1140.88 -1208.39 2603.9
1158.43 -1198.61 2582.8
1204.29 -1204.29 2595.0
1230.66 -1223.82 2637.1
1210.99 -1197.61 2580.6
1266.84 -1232.41 2655.6
1268.84 -1201.70 2589.5
1406.38 -1193.09 2570.9
1988.62 -1126.47 2427.3
-855.94 -1388.01 2974.3
-477.29 -1342.37 2876.5
-472.48 -1349.94 2892.7
-452.54 -1380.63 2958.5
-436.10 -1353.41 2900.2
-418.02 -1368.08 2931.6
-406.52 -1355.06 2903.7
-388.78 -1345.77 2883.8
-392.11 -1383.93 2965.6
-395.61 -1424.21 3051.9
-379.10 -1421.61 3046.3
-332.54 -1330.17 2850.4
-340.73 -1426.32 3056.4
-313.64 -1344.17 2880.4
-303.75 -1333.53 2857.6
-304.08 -1368.35 2932.2
-303.20 -1399.39 2998.7
-295.49 -1399.68 2999.3
-276.25 -1343.94 2879.9
-268.31 -1379.87 2956.9
-210.68 -1404.54 3009.7
-199.13 -1378.57 2954.1
-193.08 -1390.17 2978.9
-168.94 -1382.26 2962.0
-163.60 -1402.27 3004.9
-131.14 -1388.49 2975.3
-107.07 -1376.59 2949.8
-99.15 -1372.89 2941.9
-92.41 -1386.09 2970.2
-83.88 -1372.65 2941.4
-77.13 -1388.37 2975.1
-69.55 -1390.98 2980.7
-61.19 -1376.67 2950.0
-53.54 -1376.73 2950.1
-45.54 -1366.21 2927.6
-38.62 -1390.35 2979.3
-22.96 -1377.30 2951.4
-14.69 -1321.93 2832.7
0.00 -1362.96 2920.6
30.85 -1388.27 2974.9
58.22 -1309.87 2806.9
67.77 -1355.47 2904.6
75.37 -1356.67 2907.1
82.33 -1347.29 2887.0
91.00 -1364.95 2924.9
97.81 -1354.29 2902.1
102.83 -1322.07 2833.0
109.18 -1310.13 2807.4
118.78 -1336.22 2863.3
126.71 -1341.59 2874.8
143.90 -1295.14 2775.3
155.81 -1335.54 2861.9
161.87 -1324.40 2838.0
170.83 -1336.91 2864.8
181.21 -1359.11 2912.4
188.86 -1359.77 2913.8
194.07 -1343.54 2879.0
201.56 -1343.77 2879.5
212.35 -1365.08 2925.2
216.57 -1344.20 2880.4
218.23 -1309.39 2805.8
223.80 -1299.47 2784.6
233.30 -1312.32 2812.1
244.88 -1335.69 2862.2
244.05 -1292.03 2768.6
270.71 -1316.97 2822.1
279.66 -1324.71 2838.7
276.56 -1276.42 2735.2
290.52 -1275.44 2733.1
305.75 -1279.90 2742.6
317.32 -1298.11 2781.7
318.56 -1274.24 2730.5
331.04 -1295.37 2775.8
345.39 -1322.78 2834.5
362.85 -1280.64 2744.2
369.01 -1277.34 2737.2
376.62 -1279.08 2740.9
387.64 -1292.13 2768.9
388.81 -1272.46 2726.7
408.94 -1291.38 2767.2
423.27 -1313.61 2814.9
420.69 -1283.45 2750.3
471.92 -1267.85 2716.8
488.10 -1292.02 2768.6
503.41 -1313.25 2814.1
513.44 -1320.27 2829.2
512.35 -1298.92 2783.4
509.03 -1272.57 2726.9
513.53 -1266.24 2713.4
517.96 -1259.91 2699.8
529.60 -1254.32 2687.8
538.13 -1257.96 2695.6
546.51 -1261.19 2702.5
593.05 -1301.81 2789.6
613.60 -1330.71 2851.5
595.36 -1275.77 2733.8
633.02 -1266.04 2712.9
647.69 -1281.15 2745.3
651.96 -1275.57 2733.4
673.66 -1303.87 2794.0
689.63 -1320.57 2829.8
680.28 -1288.96 2762.1
672.80 -1261.50 2703.2
703.68 -1305.80 2798.1
708.55 -1301.42 2788.8
714.73 -1299.52 2784.7
714.49 -1260.87 2701.9
722.26 -1250.07 2678.7
764.50 -1310.56 2808.4
760.00 -1290.56 2765.5
749.92 -1261.55 2703.3
768.80 -1281.34 2745.7
773.50 -1277.34 2737.2
757.39 -1239.36 2655.8
800.96 -1264.68 2710.0
823.69 -1289.25 2762.7
828.78 -1286.03 2755.8
818.19 -1258.76 2697.3
805.72 -1229.07 2633.7
837.64 -1267.01 2715.0
876.18 -1314.27 2816.3
867.64 -1280.12 2743.1
840.33 -1229.76 2635.2
892.65 -1285.42 2754.5
881.50 -1239.62 2656.3
897.32 -1242.45 2662.4
942.46 -1294.98 2775.0
956.71 -1285.13 2753.9
935.99 -1247.99 2674.3
964.81 -1276.95 2736.3
953.58 -1226.03 2627.2
1004.06 -1281.78 2746.7
1031.20 -1298.01 2781.4
979.66 -1224.58 2624.1
991.39 -1213.95 2601.3
1003.65 -1220.65 2615.7
1009.36 -1219.36 2612.9
1043.11 -1219.22 2612.6
1077.49 -1251.28 2681.3
1075.02 -1240.41 2658.0
1078.67 -1236.69 2650.0
1084.36 -1235.35 2647.2
1082.34 -1225.29 2625.6
1112.58 -1251.66 2682.1
1146.79 -1274.22 2730.5
1113.59 -1214.83 2603.2
1137.62 -1233.56 2643.4
1134.06 -1222.35 2619.3
1137.01 -1218.22 2610.5
1186.07 -1213.03 2599.3
1197.96 -1218.27 2610.6
1223.02 -1236.76 2650.2
1219.17 -1225.98 2627.1
1204.30 -1204.30 2580.7
1240.50 -1233.64 2643.5
1252.98 -1239.21 2655.4
1259.52 -1193.23 2556.9
-603.81 -1366.11 2911.2
-516.35 -1354.50 2886.5
-507.96 -1352.06 2881.3
-480.24 -1358.18 2894.3
-443.46 -1360.44 2899.1
-440.53 -1374.76 2929.6
-429.22 -1362.97 2904.5
-416.87 -1347.38 2871.3
-413.39 -1360.43 2899.1
-408.89 -1370.52 2920.6
-398.96 -1362.49 2903.5
-388.64 -1352.76 2882.8
-384.60 -1364.95 2908.7
-382.76 -1385.57 2952.7
-384.34 -1419.71 3025.4
-354.26 -1364.29 2907.3
-339.78 -1366.66 2912.4
-334.97 -1410.01 3004.8
-314.61 -1355.80 2889.2
-311.21 -1373.87 2927.7
-306.11 -1385.17 2951.8
-300.44 -1394.35 2971.4
-298.13 -1420.03 3026.1
-284.46 -1391.54 2965.4
-273.54 -1375.31 2930.8
-249.85 -1413.19 3011.5
-236.57 -1381.24 2943.4
-228.83 -1380.62 2942.1
-225.99 -1410.51 3005.8
-203.01 -1413.27 3011.7
-185.93 -1402.21 2988.1
-171.03 -1345.97 2868.3
-165.01 -1357.59 2893.0
-106.21 -1373.10 2926.1
-97.74 -1360.89 2900.1
-61.54 -1392.29 2967.0
-52.81 -1365.59 2910.1
-45.90 -1384.75 2950.9
-14.84 -1343.24 2862.5
-7.28 -1318.19 2809.1
0.00 -1347.50 2871.6
7.67 -1387.86 2957.5
15.18 -1373.40 2926.7
22.66 -1367.44 2914.0
45.58 -1374.98 2930.1
59.59 -1348.12 2872.9
65.11 -1309.40 2790.4
74.24 -1343.73 2863.5
83.31 -1370.84 2921.3
90.88 -1370.75 2921.1
96.52 -1343.90 2863.9
102.00 -1318.75 2810.3
108.40 -1308.03 2787.4
117.04 -1324.05 2821.6
124.23 -1322.66 2818.6
156.97 -1291.41 2752.0
168.34 -1324.76 2823.1
173.95 -1311.86 2795.6
185.47 -1291.15 2751.5
197.00 -1320.64 2814.3
206.69 -1336.12 2847.3
209.63 -1308.37 2788.2
228.13 -1290.34 2749.7
242.09 -1327.81 2829.6
244.21 -1300.04 2770.4
268.97 -1315.79 2804.0
278.85 -1328.21 2830.4
277.83 -1289.44 2747.8
306.16 -1288.70 2746.3
316.80 -1303.19 2777.1
317.20 -1275.84 2718.8
362.37 -1286.07 2740.6
376.40 -1310.17 2792.0
393.04 -1342.26 2860.4
401.72 -1346.50 2869.4
399.31 -1314.08 2800.3
394.85 -1276.20 2719.6
405.36 -1287.18 2743.0
416.66 -1300.25 2770.9
460.92 -1264.03 2693.7
493.21 -1332.40 2839.4
484.95 -1290.81 2750.7
489.76 -1266.38 2698.7
497.23 -1267.58 2701.2
505.37 -1270.44 2707.3
522.49 -1295.49 2760.7
525.50 -1285.35 2739.1
527.71 -1273.55 2714.0
532.43 -1268.02 2702.2
537.79 -1264.15 2693.9
543.83 -1261.96 2689.3
586.34 -1248.56 2660.7
636.52 -1294.50 2758.6
659.28 -1325.89 2825.5
660.65 -1314.04 2800.3
661.05 -1300.54 2771.5
678.14 -1319.83 2812.6
684.45 -1317.93 2808.5
666.80 -1270.43 2707.3
673.94 -1257.55 2679.9
709.90 -1311.14 2794.1
711.73 -1262.96 2691.4
738.52 -1261.06 2687.3
755.31 -1277.67 2722.7
779.63 -1306.61 2784.4
789.14 -1310.40 2792.5
772.68 -1271.41 2709.4
783.57 -1233.28 2628.1
790.18 -1232.96 2627.5
845.55 -1275.37 2717.8
865.46 -1294.61 2758.8
847.30 -1257.05 2678.8
891.83 -1291.38 2751.9
876.10 -1238.85 2640.0
890.96 -1240.49 2643.5
936.31 -1293.68 2756.9
955.27 -1309.87 2791.4
947.56 -1289.54 2748.0
954.34 -1289.08 2747.0
959.31 -1286.18 2740.9
952.68 -1267.91 2701.9
973.42 -1286.05 2740.6
978.83 -1274.59 2716.2
965.21 -1247.88 2659.3
988.71 -1269.19 2704.7
1011.14 -1288.85 2746.6
998.46 -1263.78 2693.1
980.71 -1232.70 2626.9
983.92 -1228.20 2617.3
1003.61 -1244.20 2651.4
1027.04 -1264.58 2694.9
995.21 -1217.12 2593.7
1041.95 -1232.63 2626.8
1051.37 -1235.70 2633.3
1042.36 -1217.21 2593.9
1053.79 -1222.67 2605.5
1072.54 -1236.49 2635.0
1089.32 -1247.90 2659.3
1099.57 -1251.72 2667.4
1081.38 -1223.31 2606.9
1104.22 -1233.72 2629.1
1098.02 -1219.27 2598.3
1130.47 -1232.62 2626.7
1147.68 -1243.90 2650.8
1160.97 -1250.81 2665.5
1158.46 -1240.72 2644.0
1146.22 -1220.39 2600.7
1146.82 -1213.88 2586.8
1175.13 -1215.42 2590.1
1214.46 -1248.96 2661.6
1216.51 -1244.01 2651.0
1207.33 -1227.68 2616.2
1204.78 -1198.16 2553.3
1271.51 -1211.28 2581.3
1270.54 -1204.02 2565.8
1306.77 -1188.57 2532.9
1312.58 -1187.88 2531.4
1330.16 -1191.88 2539.9
1347.57 -1201.53 2560.5
-596.96 -1358.07 2878.2
-526.70 -1369.41 2902.2
-530.07 -1398.15 2963.1
-518.95 -1388.97 2943.6
-500.64 -1359.96 2882.2
-423.37 -1351.82 2864.9
-426.75 -1386.92 2939.3
-416.95 -1379.72 2924.1
-406.22 -1369.12 2901.6
-394.13 -1353.43 2868.3
-376.03 -1341.90 2843.9
-374.58 -1363.46 2889.6
-371.75 -1380.78 2926.3
-363.48 -1378.18 2920.8
-348.77 -1350.54 2862.2
-338.75 -1340.27 2840.5
-316.99 -1341.67 2843.4
-315.18 -1365.77 2894.5
-315.68 -1401.33 2969.9
-312.25 -1420.76 3011.0
-291.13 -1358.60 2879.3
-275.36 -1354.48 2870.6
-276.64 -1398.55 2964.0
-264.94 -1418.23 3005.7
-255.04 -1406.57 2981.0
-245.26 -1394.91 2956.2
-230.46 -1353.01 2867.5
-221.73 -1345.15 2850.8
-216.88 -1361.12 2884.6
-213.56 -1388.16 2941.9
-181.25 -1374.46 2912.9
-166.39 -1316.69 2790.5
-159.59 -1320.26 2798.0
-98.86 -1384.10 2933.3
-92.42 -1401.69 2970.6
-59.09 -1344.40 2849.2
-43.21 -1310.79 2778.0
-37.59 -1368.44 2900.1
-23.02 -1396.66 2960.0
-15.07 -1371.08 2905.7
-7.36 -1339.51 2838.8
0.00 -1364.26 2891.3
7.64 -1390.29 2946.5
14.96 -1361.69 2885.8
22.40 -1358.68 2879.5
65.89 -1332.39 2823.7
73.81 -1343.41 2847.1
105.38 -1369.93 2903.3
110.01 -1334.85 2829.0
116.81 -1328.76 2816.1
124.50 -1332.91 2824.8
127.81 -1292.28 2738.7
184.62 -1292.31 2738.8
192.83 -1299.79 2754.6
199.02 -1293.63 2741.6
205.35 -1288.74 2731.2
225.21 -1280.86 2714.5
235.60 -1299.36 2753.7
268.62 -1321.32 2800.3
279.73 -1339.75 2839.4
279.84 -1305.90 2767.6
281.25 -1279.70 2712.1
308.48 -1275.99 2704.2
329.38 -1275.46 2703.1
380.93 -1308.11 2772.3
392.41 -1322.55 2802.9
394.18 -1304.39 2764.4
393.68 -1279.46 2711.6
397.94 -1270.61 2692.8
403.45 -1265.98 2683.0
416.03 -1283.34 2719.8
433.11 -1313.77 2784.3
442.88 -1321.37 2800.4
449.27 -1318.82 2795.0
450.52 -1301.49 2758.3
444.45 -1263.91 2678.6
467.66 -1289.60 2733.1
494.90 -1344.36 2849.1
480.54 -1286.14 2725.7
498.89 -1261.07 2672.6
525.53 -1310.22 2776.8
538.67 -1324.84 2807.7
537.42 -1304.14 2763.9
539.63 -1292.27 2738.7
542.78 -1282.93 2718.9
546.18 -1274.42 2700.9
553.13 -1274.31 2700.7
551.60 -1254.90 2659.5
587.26 -1272.40 2696.6
605.52 -1296.52 2747.7
605.05 -1280.46 2713.7
614.87 -1257.38 2664.8
620.87 -1255.53 2660.9
634.56 -1269.13 2689.7
648.61 -1283.12 2719.3
663.44 -1298.34 2751.6
667.01 -1291.45 2737.0
670.08 -1283.73 2720.6
677.23 -1283.92 2721.0
698.58 -1310.73 2777.9
706.29 -1285.45 2724.3
712.29 -1283.53 2720.2
708.73 -1264.59 2680.1
701.21 -1239.03 2625.9
729.59 -1264.63 2680.1
764.60 -1312.80 2782.2
755.81 -1285.59 2724.6
751.16 -1265.85 2682.7
765.62 -1278.37 2709.3
757.22 -1252.85 2655.2
767.19 -1257.92 2665.9
773.15 -1256.38 2662.6
779.35 -1255.24 2660.2
809.55 -1292.43 2739.1
800.55 -1266.95 2685.1
788.66 -1237.38 2622.4
800.28 -1244.87 2638.3
809.30 -1248.24 2645.4
814.43 -1235.22 2617.8
861.93 -1296.46 2747.6
868.52 -1295.65 2745.9
859.30 -1271.48 2694.7
889.75 -1305.92 2767.7
900.30 -1310.83 2778.1
902.39 -1303.45 2762.4
908.11 -1301.39 2758.0
879.61 -1250.69 2650.6
892.27 -1258.87 2667.9
932.52 -1295.57 2745.7
908.00 -1242.52 2633.3
949.58 -1289.73 2733.3
959.34 -1293.34 2741.0
960.33 -1285.14 2723.6
958.17 -1272.89 2697.7
957.42 -1262.68 2676.0
962.76 -1260.60 2671.6
972.76 -1264.59 2680.1
985.62 -1272.22 2696.2
999.50 -1281.04 2714.9
988.34 -1257.89 2665.9
968.32 -1223.84 2593.7
969.84 -1217.32 2579.9
994.61 -1239.86 2627.6
990.60 -1226.46 2599.3
999.99 -1213.32 2571.4
1029.21 -1224.29 2594.6
1051.80 -1243.04 2634.4
1054.32 -1222.21 2590.2
1082.81 -1247.29 2643.4
1070.66 -1225.54 2597.3
1104.32 -1240.65 2629.3
1110.27 -1239.69 2627.3
1151.53 -1232.81 2612.7
1147.32 -1221.12 2587.9
1157.04 -1203.32 2550.2
1177.19 -1217.32 2579.9
1172.93 -1206.06 2556.0
-1133.29 -1410.83 2973.6
-518.42 -1355.29 2856.6
-522.69 -1386.26 2921.9
-500.52 -1346.98 2839.1
-424.81 -1363.86 2874.6
-432.70 -1414.00 2980.3
-427.91 -1423.77 3000.9
-396.41 -1343.39 2831.5
-380.16 -1364.12 2875.2
-374.90 -1372.15 2892.1
-367.96 -1374.22 2896.5
-371.94 -1418.03 2988.8
-347.20 -1381.25 2911.3
-323.89 -1378.41 2905.3
-319.56 -1392.38 2934.8
-317.00 -1414.88 2982.2
-288.20 -1352.32 2850.3
-275.52 -1362.71 2872.2
-266.36 -1354.01 2853.9
-255.09 -1333.76 2811.2
-255.71 -1376.32 2900.9
-254.94 -1413.75 2979.8
-227.26 -1386.26 2921.9
-217.89 -1374.93 2898.0
-207.85 -1358.47 2863.3
-205.38 -1392.04 2934.0
-182.08 -1388.34 2926.2
-66.43 -1350.80 2847.1
-57.20 -1308.43 2757.8
-50.63 -1323.48 2789.5
-43.35 -1322.25 2786.9
-37.45 -1370.72 2889.1
-29.84 -1365.18 2877.4
-21.83 -1331.77 2807.0
-15.07 -1378.94 2906.4
7.57 -1384.53 2918.2
15.03 -1375.09 2898.3
22.84 -1393.50 2937.1
45.25 -1380.11 2908.9
67.28 -1367.94 2883.2
73.88 -1352.01 2849.7
82.32 -1369.50 2886.5
89.43 -1363.85 2874.6
94.05 -1323.91 2790.4
102.39 -1338.37 2820.9
109.34 -1333.98 2811.7
116.92 -1337.30 2818.7
125.45 -1350.45 2846.4
130.46 -1326.34 2795.6
136.14 -1311.22 2763.7
142.07 -1299.95 2739.9
147.93 -1289.10 2717.1
159.43 -1326.19 2795.2
172.42 -1371.83 2891.4
172.20 -1313.02 2767.5
183.94 -1294.69 2728.9
200.46 -1310.13 2761.4
212.40 -1340.29 2825.0
214.01 -1305.44 2751.5
259.89 -1285.41 2709.3
272.89 -1314.18 2769.9
274.74 -1289.15 2717.2
310.46 -1321.26 2784.9
313.71 -1304.75 2750.1
313.53 -1275.02 2687.4
342.33 -1305.15 2750.9
348.23 -1300.55 2741.2
347.80 -1272.95 2683.0
395.69 -1270.38 2677.6
410.32 -1294.62 2728.7
431.77 -1339.23 2822.7
439.51 -1340.49 2825.4
439.90 -1319.69 2781.5
440.92 -1301.44 2743.1
437.81 -1271.74 2680.5
441.94 -1263.68 2663.5
449.44 -1265.36 2667.0
460.32 -1276.35 2690.2
470.54 -1285.21 2708.9
471.26 -1268.24 2673.1
487.19 -1273.65 2684.5
503.31 -1297.27 2734.3
501.06 -1273.53 2684.3
513.05 -1286.14 2710.8
535.76 -1324.91 2792.6
546.07 -1332.41 2808.4
542.26 -1305.71 2752.1
539.94 -1283.24 2704.7
549.07 -1288.19 2715.2
560.97 -1299.46 2738.9
571.15 -1306.49 2753.7
572.63 -1293.72 2726.8
574.55 -1282.22 2702.6
594.66 -1311.12 2763.5
614.30 -1338.30 2820.8
619.08 -1317.35 2776.6
602.62 -1253.17 2641.3
622.85 -1280.70 2699.4
613.26 -1246.96 2628.3
635.77 -1251.03 2636.8
661.36 -1247.71 2629.8
682.38 -1274.23 2685.7
694.58 -1246.15 2626.6
733.85 -1303.83 2748.1
717.38 -1262.32 2660.6
726.99 -1267.04 2670.6
762.67 -1316.69 2775.2
761.18 -1301.83 2743.9
732.55 -1241.27 2616.3
776.04 -1279.41 2696.7
786.64 -1285.31 2709.1
797.81 -1292.03 2723.2
821.69 -1319.03 2780.1
806.30 -1283.07 2704.4
783.73 -1236.40 2606.0
834.95 -1262.78 2661.6
884.01 -1283.92 2706.1
870.21 -1253.93 2642.9
865.01 -1236.70 2606.6
898.69 -1274.88 2687.1
895.00 -1250.27 2635.2
905.38 -1245.75 2625.7
917.87 -1253.51 2642.1
902.39 -1223.24 2578.3
919.39 -1237.12 2607.5
935.30 -1249.34 2633.3
940.56 -1247.26 2628.9
950.44 -1251.30 2637.4
967.21 -1264.28 2664.8
989.43 -1284.16 2706.7
981.24 -1264.55 2665.3
1049.18 -1288.59 2716.0
1018.02 -1233.76 2600.4
1033.02 -1235.57 2604.2
1034.24 -1229.00 2590.4
1086.53 -1266.46 2669.4
1094.00 -1267.10 2670.7
1063.09 -1223.56 2578.9
1061.94 -1214.59 2560.0
1113.97 -1266.19 2668.8
1129.96 -1276.43 2690.4
1085.04 -1218.18 2567.6
1090.51 -1209.47 2549.2
1153.77 -1206.52 2543.0
1173.13 -1219.79 2571.0
1166.57 -1206.11 2542.2
1192.94 -1199.50 2528.2
1892.68 -1139.34 2401.4
-409.49 -1369.93 2871.7
-378.55 -1339.48 2807.9
-385.59 -1391.16 2916.2
-375.58 -1382.13 2897.3
-360.08 -1352.13 2834.4
-354.94 -1360.61 2852.2
-356.60 -1396.06 2926.5
-337.76 -1351.03 2832.1
-323.07 -1382.42 2897.9
-320.22 -1402.88 2940.8
-317.16 -1423.34 2983.7
-289.28 -1364.79 2861.0
-276.78 -1340.20 2809.4
-275.42 -1369.64 2871.1
-263.16 -1345.03 2819.6
-256.96 -1350.87 2831.8
-213.40 -1402.33 2939.7
-206.94 -1410.27 2956.3
-172.24 -1377.94 2888.5
-167.65 -1402.19 2939.4
-144.48 -1399.22 2933.1
-133.11 -1360.64 2852.3
-128.43 -1390.03 2913.9
-21.97 -1347.61 2825.0
-14.64 -1347.20 2824.1
-7.50 -1379.50 2891.8
0.00 -1364.86 2861.1
7.42 -1365.72 2862.9
14.90 -1370.88 2873.7
22.63 -1388.08 2909.8
37.55 -1381.99 2897.0
44.14 -1353.54 2837.4
75.09 -1381.71 2896.4
81.44 -1362.26 2855.7
85.78 -1315.26 2757.1
113.44 -1304.53 2734.7
124.29 -1345.29 2820.1
132.14 -1350.75 2831.5
138.62 -1342.44 2814.1
145.34 -1337.14 2803.0
153.33 -1343.44 2816.2
175.39 -1344.66 2818.8
174.79 -1286.46 2696.8
