ply
format ascii 1.0
element vertex 2031
property float x
property float y
property float z
end_header
420.79 -1354.17 2951.0
430.66 -1361.20 2966.3
449.67 -1396.33 3042.9
449.96 -1373.17 2992.4
463.64 -1367.74 2980.5
489.42 -1420.13 3094.7
506.75 -1423.71 3102.5
511.48 -1414.56 3082.6
533.81 -1389.48 3027.9
546.98 -1383.09 3014.0
555.70 -1347.37 2936.2
605.39 -1373.76 2993.7
626.80 -1404.35 3060.3
633.72 -1402.11 3055.4
619.24 -1353.16 2948.8
669.71 -1378.35 3003.7
682.40 -1388.34 3025.4
797.83 -1357.85 2959.0
1516.14 -1369.16 2983.7
-1622.43 -1312.70 2844.5
-1625.33 -1339.39 2902.4
-1636.95 -1355.24 2936.7
-1605.69 -1335.57 2894.1
-1566.99 -1328.21 2878.1
-1511.61 -1332.01 2886.4
-1464.80 -1310.22 2839.2
-1511.56 -1358.88 2944.6
-1468.68 -1327.03 2875.6
-1431.51 -1313.45 2846.1
-1413.08 -1323.83 2868.7
-1264.49 -1372.44 2974.0
-1232.70 -1346.14 2917.0
-1187.28 -1329.15 2880.2
-1166.08 -1313.68 2846.7
-1069.84 -1360.23 2947.5
-1075.07 -1376.71 2983.2
-1058.81 -1365.71 2959.4
-1016.57 -1320.79 2862.1
-1016.72 -1340.57 2904.9
-1016.80 -1350.67 2926.8
-988.37 -1322.79 2866.4
-964.42 -1351.71 2929.1
-967.68 -1367.04 2962.3
-914.48 -1356.49 2939.4
-893.39 -1336.34 2895.8
-846.77 -1333.85 2890.4
-836.71 -1329.77 2881.5
-829.46 -1330.13 2882.3
-838.26 -1356.45 2939.3
-820.42 -1339.77 2903.2
-807.93 -1331.59 2885.5
-827.52 -1376.63 2983.1
-830.65 -1394.87 3022.6
-803.36 -1361.88 2951.1
-788.53 -1349.60 2924.5
-793.39 -1371.10 2971.1
-798.71 -1393.84 3020.4
-788.53 -1389.69 3011.4
-784.80 -1396.94 3027.1
-724.99 -1344.24 2912.9
-717.29 -1358.28 2943.3
-647.64 -1340.47 2904.7
-647.08 -1355.05 2936.3
-635.48 -1346.62 2918.0
-617.46 -1324.19 2869.4
-599.62 -1334.16 2891.0
-616.51 -1389.10 3010.1
-582.39 -1364.03 2955.8
-571.49 -1356.33 2939.1
-575.25 -1383.70 2998.4
-556.52 -1356.99 2940.5
-551.12 -1362.48 2952.4
-525.18 -1395.25 3023.4
-517.53 -1395.76 3024.5
-475.45 -1343.34 2910.9
-393.30 -1346.30 2917.4
-351.39 -1359.72 2946.4
-328.96 -1330.80 2883.8
-323.47 -1339.04 2901.6
-300.18 -1335.78 2894.5
-282.04 -1394.51 3021.8
-265.80 -1351.77 2929.2
-257.14 -1346.18 2917.1
-210.66 -1339.20 2902.0
-206.78 -1363.24 2954.1
-187.41 -1334.35 2891.5
-183.10 -1357.96 2942.6
-175.71 -1359.81 2946.6
-168.66 -1364.58 2957.0
-113.52 -1347.13 2919.1
-105.14 -1336.77 2896.7
-37.90 -1349.14 2923.5
-15.10 -1344.19 2912.8
-7.76 -1381.49 2993.6
0.00 -1349.23 2923.7
22.68 -1345.84 2916.4
30.33 -1349.59 2924.5
38.77 -1380.14 2990.7
47.73 -1416.13 3068.7
61.17 -1361.14 2949.5
76.51 -1361.84 2951.0
85.86 -1389.41 3010.8
92.79 -1376.34 2982.4
100.30 -1373.31 2975.9
108.40 -1378.23 2986.5
113.98 -1352.58 2930.9
121.34 -1349.95 2925.3
131.20 -1373.69 2976.7
137.67 -1361.42 2950.1
150.35 -1338.11 2899.6
159.77 -1354.28 2934.6
167.05 -1351.61 2928.8
176.08 -1362.74 2953.0
184.17 -1365.91 2959.8
214.34 -1362.61 2952.7
225.51 -1384.14 2999.3
229.58 -1362.18 2951.8
233.55 -1341.05 2906.0
252.79 -1363.56 2954.7
263.60 -1380.01 2990.4
263.83 -1341.75 2907.5
271.73 -1343.58 2911.4
288.34 -1387.14 3005.8
308.37 -1407.42 3049.8
302.61 -1346.63 2918.0
321.44 -1395.54 3024.0
349.73 -1383.39 2997.7
357.63 -1383.88 2998.8
382.87 -1419.81 3076.6
372.06 -1351.58 2928.8
388.79 -1384.09 2999.2
404.68 -1412.42 3060.6
433.73 -1403.72 3041.8
435.60 -1384.60 3000.3
465.64 -1358.76 2944.3
477.45 -1370.74 2970.3
494.37 -1396.81 3026.8
510.69 -1420.36 3077.8
515.16 -1410.75 3057.0
520.14 -1402.79 3039.8
525.96 -1397.32 3027.9
544.35 -1384.20 2999.5
563.12 -1411.77 3059.2
663.32 -1372.92 2975.0
689.58 -1410.87 3057.3
691.02 -1351.67 2929.0
706.16 -1351.58 2928.8
719.24 -1361.96 2951.3
816.07 -1383.44 2997.8
837.92 -1407.07 3049.0
1488.42 -1365.66 2959.3
-1609.96 -1365.79 2943.0
-1584.34 -1350.46 2910.0
-1494.08 -1323.97 2852.9
-1502.57 -1338.11 2883.4
-1444.79 -1312.78 2828.8
-1426.84 -1309.77 2822.3
-1429.09 -1318.60 2841.3
-1408.65 -1327.10 2859.7
-1332.33 -1310.37 2823.6
-1233.89 -1314.68 2832.9
-1253.69 -1368.36 2948.6
-1206.94 -1325.41 2856.0
-1173.07 -1312.37 2827.9
-1188.70 -1338.22 2883.6
-1176.21 -1332.55 2871.4
-1105.77 -1319.56 2843.4
-1106.15 -1328.87 2863.5
-1097.56 -1327.46 2860.4
-1031.68 -1319.07 2842.4
-1035.59 -1333.60 2873.7
-1020.51 -1323.71 2852.4
-952.88 -1353.70 2917.0
-927.87 -1328.72 2863.2
-923.15 -1377.04 2967.3
-913.33 -1373.83 2960.4
-842.36 -1322.65 2850.1
-867.56 -1374.28 2961.3
-857.33 -1370.20 2952.5
-847.39 -1366.51 2944.6
-845.99 -1376.66 2966.5
-820.16 -1346.86 2902.3
-796.25 -1332.05 2870.3
-826.74 -1396.10 3008.3
-796.82 -1371.45 2955.3
-791.24 -1375.06 2963.0
-788.64 -1383.98 2982.2
-768.38 -1361.78 2934.4
-767.35 -1373.56 2959.8
-773.23 -1398.06 3012.6
-747.62 -1365.56 2942.5
-717.91 -1324.81 2854.7
-729.37 -1359.97 2930.5
-741.54 -1397.22 3010.8
-716.62 -1364.62 2940.5
-707.85 -1362.41 2935.8
-667.14 -1357.02 2924.2
-646.44 -1330.02 2866.0
-645.84 -1344.25 2896.6
-639.80 -1347.34 2903.3
-605.15 -1354.03 2917.7
-582.01 -1370.79 2953.8
-582.92 -1391.25 2997.9
-570.71 -1399.40 3015.5
-548.75 -1364.26 2939.7
-547.76 -1380.97 2975.8
-513.81 -1393.51 3002.8
-507.56 -1397.75 3011.9
-502.31 -1404.89 3027.3
-410.95 -1362.21 2935.3
-403.33 -1362.19 2935.3
-395.10 -1360.07 2930.7
-393.57 -1381.35 2976.6
-382.46 -1369.19 2950.4
-372.27 -1359.94 2930.4
-373.30 -1392.09 2999.7
-361.99 -1378.65 2970.7
-347.50 -1352.21 2913.8
-337.92 -1344.18 2896.5
-335.23 -1363.76 2938.7
-330.40 -1375.40 2963.7
-316.50 -1348.91 2906.7
-306.16 -1336.64 2880.2
-300.63 -1345.32 2898.9
-301.03 -1381.66 2977.2
-290.35 -1367.70 2947.2
-275.49 -1332.75 2871.9
-272.14 -1353.15 2915.8
-267.67 -1368.94 2949.8
-256.01 -1347.80 2904.3
-208.48 -1332.80 2872.0
-203.48 -1348.96 2906.8
-182.07 -1357.94 2926.1
-178.88 -1392.16 2999.9
-172.11 -1400.32 3017.5
-159.32 -1358.02 2926.3
-134.07 -1333.23 2872.9
-129.23 -1360.70 2932.1
-120.17 -1344.42 2897.0
-104.48 -1335.80 2878.4
-97.36 -1340.53 2888.6
-90.02 -1342.73 2893.3
-82.16 -1336.92 2880.8
-7.71 -1379.88 2973.4
0.00 -1413.14 3045.1
15.41 -1379.45 2972.5
30.35 -1358.36 2927.0
39.41 -1410.94 3040.3
46.77 -1395.32 3006.7
52.64 -1346.03 2900.5
67.46 -1341.70 2891.1
91.43 -1363.77 2938.7
101.94 -1403.64 3024.6
107.67 -1376.61 2966.4
130.99 -1379.20 2971.9
134.87 -1341.22 2890.1
158.88 -1354.24 2918.2
179.87 -1341.55 2890.8
205.50 -1362.41 2935.8
211.31 -1350.86 2910.9
232.89 -1344.74 2897.7
259.59 -1366.68 2945.0
270.05 -1381.11 2976.1
292.57 -1378.18 2969.7
295.74 -1357.35 2924.9
318.63 -1391.11 2997.6
352.97 -1404.04 3025.5
347.93 -1353.89 2917.4
359.68 -1369.86 2951.8
377.34 -1407.15 3032.2
386.35 -1411.38 3041.3
390.05 -1396.36 3008.9
391.54 -1374.25 2961.3
400.08 -1377.20 2967.6
412.36 -1392.68 3001.0
426.32 -1413.16 3045.1
425.74 -1385.60 2985.7
427.87 -1367.66 2947.1
450.79 -1415.63 3050.4
457.99 -1366.35 2944.3
461.50 -1354.24 2918.1
472.80 -1365.03 2941.4
488.33 -1387.47 2989.8
510.35 -1427.37 3075.7
521.63 -1414.72 3048.5
521.72 -1393.84 3003.5
512.26 -1348.44 2905.7
575.61 -1411.44 3041.4
563.55 -1363.19 2937.4
611.72 -1386.06 2986.7
623.83 -1395.81 3007.7
620.50 -1371.23 2954.8
660.71 -1375.19 2963.3
670.09 -1378.69 2970.8
709.49 -1351.06 2911.3
765.29 -1369.88 2951.8
798.42 -1415.03 3049.1
799.60 -1403.22 3023.7
780.88 -1357.06 2924.2
814.35 -1388.28 2991.5
844.15 -1425.50 3071.7
869.55 -1365.35 2942.1
870.66 -1355.19 2920.2
1292.31 -1368.77 2949.5
-1636.49 -1315.04 2817.9
-1588.64 -1311.72 2810.8
-1544.79 -1311.62 2810.6
-1619.78 -1381.80 2961.0
-1480.00 -1325.38 2840.1
-1461.41 -1342.11 2875.9
-1419.01 -1309.86 2806.8
-1404.60 -1316.81 2821.7
-1246.61 -1319.94 2828.4
-1185.21 -1316.90 2821.9
-1171.70 -1318.16 2824.6
-1193.27 -1350.87 2894.7
-1184.58 -1349.53 2891.8
-939.39 -1321.01 2830.7
-882.42 -1323.63 2836.3
-903.87 -1367.20 2929.7
-883.46 -1347.65 2887.8
-864.96 -1377.82 2952.5
-862.64 -1386.39 2970.8
-843.57 -1367.96 2931.3
-828.95 -1356.46 2906.7
-818.90 -1352.31 2897.8
-808.64 -1347.74 2888.0
-786.73 -1323.47 2836.0
-793.10 -1346.78 2885.9
-810.24 -1388.98 2976.4
-792.99 -1372.49 2941.0
-789.32 -1379.39 2955.8
-788.60 -1391.64 2982.1
-765.81 -1364.81 2924.6
-762.75 -1372.94 2942.0
-727.90 -1350.74 2894.4
-710.42 -1332.04 2854.4
-734.52 -1391.73 2982.3
-725.21 -1388.70 2975.8
-693.52 -1342.29 2876.3
-691.67 -1353.28 2899.9
-667.11 -1364.55 2924.0
-665.65 -1377.20 2951.1
-633.31 -1357.08 2908.0
-622.98 -1351.05 2895.1
-622.75 -1367.00 2929.3
-609.62 -1354.72 2903.0
-614.92 -1383.56 2964.8
-596.34 -1394.04 2987.2
-578.46 -1370.05 2935.8
-565.88 -1358.11 2910.2
-558.73 -1359.07 2912.3
-558.49 -1377.11 2950.9
-554.39 -1385.98 2970.0
-488.44 -1373.74 2943.7
-491.22 -1403.49 3007.5
-457.13 -1371.39 2938.7
-440.59 -1344.19 2880.4
-440.15 -1365.98 2927.1
-440.93 -1392.40 2983.7
-436.06 -1401.63 3003.5
-386.40 -1391.03 2980.8
-366.76 -1347.30 2887.1
-357.47 -1340.51 2872.5
-356.81 -1366.50 2928.2
-352.21 -1378.19 2953.3
-350.00 -1399.98 3000.0
-322.97 -1384.15 2966.0
-319.86 -1404.25 3009.1
-305.39 -1409.49 3020.3
-232.66 -1350.92 2894.8
-226.81 -1360.85 2916.1
-208.47 -1340.19 2871.8
-204.86 -1365.71 2926.5
-192.54 -1332.99 2856.4
-182.79 -1370.93 2937.7
-176.01 -1377.44 2951.7
-166.36 -1361.14 2916.7
-156.90 -1344.83 2881.8
-138.41 -1384.14 2966.0
-128.50 -1360.61 2915.6
-98.18 -1359.37 2912.9
-92.83 -1392.43 2983.8
-84.61 -1384.49 2966.8
-75.16 -1352.86 2899.0
-67.48 -1349.55 2891.9
-60.55 -1362.30 2919.2
-52.57 -1351.78 2896.7
-44.81 -1344.22 2880.5
7.56 -1360.00 2914.3
15.05 -1354.49 2902.5
30.66 -1379.81 2956.7
39.01 -1404.31 3009.2
45.24 -1357.33 2908.6
59.57 -1340.31 2872.1
90.21 -1353.12 2899.5
100.56 -1392.34 2983.6
105.79 -1360.11 2914.5
127.30 -1347.93 2888.4
202.85 -1404.32 3009.3
212.20 -1414.67 3031.4
213.46 -1372.26 2940.6
234.84 -1363.58 2922.0
297.18 -1371.59 2939.1
312.40 -1405.82 3012.5
357.79 -1400.06 3000.1
354.83 -1358.93 2912.0
367.79 -1351.08 2895.2
382.72 -1350.76 2894.5
402.60 -1393.62 2986.3
411.09 -1396.16 2991.8
419.36 -1397.85 2995.4
425.71 -1393.24 2985.5
433.97 -1394.92 2989.1
441.06 -1392.82 2984.6
449.74 -1395.73 2990.9
465.17 -1419.17 3041.1
469.00 -1406.99 3015.0
470.70 -1388.94 2976.3
480.99 -1396.43 2992.4
479.22 -1369.19 2934.0
482.49 -1357.01 2907.9
494.84 -1370.33 2936.4
496.00 -1352.72 2898.7
514.37 -1381.89 2961.2
523.59 -1385.98 2970.0
564.23 -1410.58 3022.7
603.78 -1430.00 3064.3
586.73 -1371.57 2939.1
600.95 -1386.81 2971.7
632.09 -1422.21 3047.6
635.80 -1412.88 3027.6
639.20 -1403.13 3006.7
633.89 -1374.70 2945.8
652.55 -1365.81 2926.7
671.85 -1390.04 2978.7
672.98 -1376.56 2949.8
782.67 -1394.85 2989.0
795.12 -1403.16 3006.8
784.38 -1370.76 2937.3
782.31 -1354.00 2901.4
790.60 -1355.32 2904.3
1026.29 -1358.32 2910.7
-1629.72 -1311.02 2793.8
-1582.38 -1313.81 2799.8
-1588.42 -1324.90 2823.4
-1479.94 -1313.08 2798.2
-1474.03 -1314.28 2800.8
-1425.94 -1316.81 2806.1
-1415.35 -1313.73 2799.6
-1405.79 -1318.38 2809.5
-1430.55 -1348.59 2873.9
-1396.94 -1323.80 2821.0
-1304.51 -1319.09 2811.0
-1297.92 -1319.80 2812.5
-1289.79 -1318.94 2810.7
-1277.46 -1313.75 2799.6
-1258.51 -1339.94 2855.4
-1244.37 -1332.73 2840.1
-1198.78 -1331.16 2836.7
-1195.20 -1335.37 2845.7
-1181.92 -1337.05 2849.3
-1190.15 -1363.41 2905.4
-971.70 -1322.38 2818.0
-935.94 -1323.48 2820.4
-938.08 -1336.95 2849.1
-887.59 -1327.71 2829.4
-836.99 -1340.66 2857.0
-843.28 -1362.80 2904.2
-831.44 -1355.78 2889.2
-819.92 -1349.15 2875.1
-812.93 -1349.91 2876.7
-827.05 -1386.08 2953.8
-818.67 -1397.92 2979.0
-795.80 -1385.01 2951.5
-789.05 -1386.58 2954.8
-785.53 -1393.93 2970.5
-758.17 -1358.70 2895.4
-761.11 -1377.61 2935.7
-748.08 -1395.90 2974.7
-696.83 -1327.65 2829.2
-711.81 -1370.62 2920.8
-700.96 -1364.24 2907.2
-675.61 -1329.19 2832.5
-685.30 -1363.07 2904.7
-655.35 -1347.94 2872.5
-661.61 -1376.45 2933.2
-619.68 -1384.72 2950.9
-609.90 -1379.89 2940.6
-613.10 -1404.70 2993.4
-605.41 -1404.87 2993.8
-586.69 -1379.11 2938.9
-567.90 -1352.49 2882.2
-553.20 -1335.05 2845.0
-561.10 -1372.41 2924.6
-548.51 -1398.32 2979.8
-526.27 -1380.50 2941.9
-509.06 -1354.99 2887.5
-475.93 -1346.00 2868.3
-473.48 -1360.33 2898.9
-472.65 -1402.45 2988.6
-422.73 -1366.34 2911.7
-387.07 -1401.18 2986.0
-367.66 -1358.09 2894.1
-360.70 -1360.14 2898.5
-362.60 -1396.38 2975.7
-354.86 -1396.31 2975.6
-349.65 -1406.38 2997.0
-318.92 -1374.40 2928.9
-316.67 -1397.97 2979.1
-310.97 -1407.16 2998.7
-287.68 -1335.12 2845.2
-234.39 -1368.52 2916.4
-208.86 -1350.11 2877.1
-189.43 -1371.48 2922.7
-186.27 -1404.75 2993.5
-177.72 -1398.57 2980.4
-166.45 -1369.47 2918.4
-155.61 -1341.20 2858.1
-142.20 -1354.65 2886.8
-137.94 -1387.05 2955.8
-126.78 -1349.83 2876.5
-91.53 -1380.52 2941.9
-85.14 -1400.99 2985.5
-76.07 -1376.86 2934.1
-68.78 -1383.30 2947.8
-61.20 -1384.64 2950.7
-52.81 -1365.59 2910.1
-45.38 -1369.03 2917.4
-37.55 -1359.30 2896.7
-29.90 -1352.97 2883.2
-22.62 -1364.46 2907.7
-14.82 -1341.54 2858.8
7.40 -1338.58 2852.5
96.31 -1340.93 2857.6
134.10 -1348.42 2873.5
155.90 -1343.75 2863.6
178.00 -1342.40 2860.7
189.84 -1374.45 2929.0
199.30 -1387.40 2956.6
200.86 -1346.50 2869.4
209.05 -1351.39 2879.8
218.05 -1360.92 2900.1
241.46 -1365.75 2910.4
252.28 -1383.72 2948.7
252.72 -1345.35 2867.0
286.10 -1399.59 2982.5
292.71 -1394.22 2971.1
300.44 -1394.35 2971.4
312.75 -1415.20 3015.8
341.25 -1372.58 2925.0
343.92 -1353.23 2883.8
357.45 -1347.90 2872.4
373.72 -1380.46 2941.8
376.46 -1362.79 2904.1
387.45 -1375.07 2930.3
431.06 -1418.57 3023.0
433.94 -1402.56 2988.9
436.25 -1385.29 2952.1
437.02 -1363.81 2906.3
444.14 -1362.54 2903.6
458.50 -1383.13 2947.5
470.81 -1396.98 2977.0
474.33 -1384.75 2950.9
518.69 -1401.23 2986.0
523.24 -1392.75 2968.0
557.72 -1421.78 3029.8
562.19 -1413.28 3011.7
598.08 -1405.87 2995.9
589.03 -1366.84 2912.8
600.52 -1375.88 2932.0
601.04 -1359.85 2897.9
606.61 -1355.51 2888.6
665.38 -1416.86 3019.4
669.74 -1409.56 3003.8
674.01 -1402.26 2988.2
693.99 -1427.40 3041.8
693.36 -1410.10 3005.0
732.96 -1396.47 2975.9
749.75 -1413.60 3012.4
739.64 -1380.16 2941.1
739.49 -1365.79 2910.5
825.17 -1357.78 2893.5
1026.58 -1366.25 2911.5
-1558.14 -1306.83 2769.6
-1432.13 -1309.78 2775.8
-1396.52 -1323.79 2805.5
-1381.07 -1315.99 2789.0
-1309.98 -1331.94 2822.8
-1319.54 -1349.20 2859.4
-1302.11 -1338.89 2837.5
-1287.05 -1330.93 2820.6
-1227.06 -1313.68 2784.1
-1192.38 -1331.37 2821.6
-1166.49 -1326.88 2812.1
-1166.38 -1335.10 2829.5
-1129.57 -1334.95 2829.2
-1036.66 -1319.39 2796.2
-1030.77 -1321.13 2799.9
-965.75 -1321.55 2800.8
-930.72 -1344.38 2849.1
-896.86 -1349.00 2859.0
-878.62 -1332.58 2824.1
-812.03 -1331.43 2821.7
-821.15 -1358.64 2879.4
-821.27 -1396.93 2960.5
-797.42 -1395.49 2957.5
-785.25 -1387.53 2940.6
-777.58 -1387.44 2940.4
-763.45 -1375.72 2915.6
-728.93 -1353.74 2869.0
-711.44 -1334.87 2829.0
-699.51 -1354.38 2870.3
-690.71 -1351.70 2864.7
-662.52 -1325.05 2808.2
-674.76 -1364.51 2891.8
-679.22 -1388.97 2943.6
-660.58 -1366.21 2895.4
-634.39 -1327.12 2812.6
-629.17 -1331.49 2821.8
-621.14 -1395.65 2957.8
-599.79 -1399.51 2966.0
-593.77 -1403.45 2974.3
-575.52 -1396.60 2959.8
-542.89 -1391.63 2949.3
-533.82 -1387.94 2941.5
-527.99 -1392.67 2951.5
-488.91 -1368.94 2901.2
-462.50 -1336.11 2831.6
-471.48 -1406.70 2981.2
-418.87 -1337.44 2834.4
-431.69 -1403.00 2973.4
-373.30 -1358.80 2879.7
-364.33 -1353.23 2867.9
-368.06 -1395.57 2957.6
-363.01 -1405.68 2979.1
-346.26 -1369.97 2903.4
-329.68 -1333.39 2825.9
-321.30 -1359.93 2882.1
-315.08 -1365.34 2893.6
-311.47 -1382.64 2930.2
-304.88 -1387.19 2939.9
-291.58 -1360.72 2883.8
-287.72 -1378.01 2920.4
-281.15 -1382.97 2930.9
-272.85 -1379.41 2923.4
-269.00 -1398.82 2964.5
-257.55 -1378.67 2921.8
-230.89 -1355.57 2872.9
-230.57 -1398.79 2964.5
-211.66 -1375.81 2915.8
-177.93 -1349.33 2859.6
-171.40 -1356.32 2874.5
-161.70 -1337.73 2835.1
-141.30 -1353.53 2868.6
-135.99 -1374.99 2914.0
-126.45 -1353.80 2869.1
-83.33 -1378.74 2922.0
-76.93 -1400.15 2967.4
-68.44 -1384.01 2933.1
-59.88 -1362.32 2887.2
-29.49 -1342.01 2844.1
-22.81 -1383.86 2932.8
-15.27 -1389.85 2945.5
-7.52 -1368.53 2900.3
0.00 -1383.89 2932.9
7.66 -1394.56 2955.5
14.87 -1352.73 2866.8
60.16 -1368.72 2900.7
66.27 -1340.07 2840.0
97.28 -1361.92 2886.3
103.38 -1343.91 2848.2
127.45 -1364.46 2891.7
133.37 -1348.55 2858.0
140.46 -1345.43 2851.4
152.00 -1383.23 2931.5
170.51 -1410.61 2989.5
170.27 -1347.37 2855.5
208.39 -1354.52 2870.6
217.15 -1362.82 2888.2
251.49 -1387.00 2939.5
257.47 -1378.24 2920.9
284.44 -1399.12 2965.2
292.15 -1399.26 2965.5
289.12 -1349.25 2859.5
327.72 -1420.12 3009.7
340.49 -1377.10 2918.5
348.72 -1379.73 2924.1
350.74 -1358.18 2878.4
361.35 -1370.12 2903.7
439.24 -1427.54 3025.4
437.94 -1398.34 2963.5
434.30 -1362.81 2888.2
457.32 -1364.46 2891.7
468.11 -1374.14 2912.2
468.34 -1353.00 2867.4
491.82 -1356.23 2874.3
527.61 -1412.14 2992.8
547.12 -1364.06 2890.9
550.12 -1353.01 2867.4
563.75 -1368.02 2899.3
596.19 -1391.12 2948.2
603.22 -1389.70 2945.2
598.80 -1362.27 2887.1
656.92 -1406.59 2981.0
657.43 -1391.31 2948.6
651.58 -1363.08 2888.8
661.80 -1368.72 2900.7
673.50 -1377.27 2918.9
689.52 -1364.04 2890.8
704.46 -1363.96 2890.7
713.13 -1366.20 2895.4
739.68 -1373.70 2911.3
747.98 -1375.07 2914.2
752.63 -1369.79 2903.0
756.76 -1363.67 2890.0
777.29 -1360.25 2882.8
795.57 -1378.99 2922.5
-1611.50 -1328.40 2799.9
-1259.21 -1316.78 2775.4
-1229.24 -1315.51 2772.7
-1228.96 -1322.94 2788.4
-1062.41 -1359.58 2865.6
-1067.08 -1375.18 2898.5
-1042.75 -1353.35 2852.5
-969.68 -1324.26 2791.2
-947.51 -1323.62 2789.8
-944.97 -1330.23 2803.8
-923.07 -1340.65 2825.7
-937.68 -1372.76 2893.4
-889.17 -1355.99 2858.1
-874.24 -1344.42 2833.7
-842.46 -1329.06 2801.3
-848.96 -1350.95 2847.4
-826.59 -1326.89 2796.7
-835.93 -1378.15 2904.8
-838.35 -1394.70 2939.7
-795.32 -1335.27 2814.4
-787.92 -1347.57 2840.3
-778.45 -1369.76 2887.1
-765.28 -1359.66 2865.8
-767.08 -1376.23 2900.7
-762.49 -1381.54 2911.9
-756.71 -1384.77 2918.7
-726.94 -1343.73 2832.2
-702.04 -1338.25 2820.7
-728.52 -1403.36 2957.9
-718.20 -1398.19 2947.0
-692.17 -1362.02 2870.8
-683.80 -1360.17 2866.9
-691.91 -1391.42 2932.7
-688.55 -1400.05 2950.9
-676.93 -1391.90 2933.7
-670.25 -1393.81 2937.8
-655.35 -1378.49 2905.5
-636.46 -1354.33 2854.5
-649.45 -1398.24 2947.1
-614.80 -1406.35 2964.2
-587.90 -1361.84 2870.4
-584.29 -1370.84 2889.4
-576.17 -1405.87 2963.2
-565.13 -1397.55 2945.7
-554.68 -1390.50 2930.8
-548.62 -1394.42 2939.1
-542.85 -1399.18 2949.1
-528.61 -1381.94 2912.7
-517.58 -1372.72 2893.3
-519.86 -1399.04 2948.8
-495.77 -1374.63 2897.3
-479.13 -1391.75 2933.4
-440.20 -1342.62 2829.9
-433.96 -1346.02 2837.0
-446.13 -1407.61 2966.9
-410.84 -1392.30 2934.6
-400.52 -1382.92 2914.8
-397.79 -1399.90 2950.6
-386.69 -1387.52 2924.5
-369.44 -1352.14 2849.9
-366.25 -1367.83 2883.0
-346.56 -1378.69 2905.9
-326.12 -1356.34 2858.8
-317.70 -1384.28 2917.7
-303.33 -1353.87 2853.6
-305.97 -1399.83 2950.5
-289.38 -1393.60 2937.3
-274.74 -1358.86 2864.1
-267.12 -1357.85 2862.0
-264.90 -1385.03 2919.3
-255.95 -1377.60 2903.6
-233.65 -1336.20 2816.4
-233.13 -1376.19 2900.6
-228.52 -1393.95 2938.1
-220.73 -1392.89 2935.8
-208.83 -1364.88 2876.8
-155.30 -1353.32 2852.4
-146.33 -1338.91 2822.1
-138.76 -1336.49 2816.9
-132.95 -1351.61 2848.8
-110.40 -1346.84 2838.8
-73.60 -1346.87 2838.8
-66.10 -1343.94 2832.7
-58.75 -1344.00 2832.8
-14.72 -1347.22 2839.6
-7.54 -1378.95 2906.5
0.00 -1358.38 2863.1
52.22 -1365.06 2877.2
62.01 -1418.57 2990.0
68.46 -1391.94 2933.8
96.18 -1353.90 2853.6
103.60 -1354.23 2854.3
117.37 -1342.44 2829.5
126.88 -1365.87 2878.9
133.62 -1358.46 2863.3
141.56 -1363.46 2873.8
147.83 -1352.61 2850.9
154.91 -1349.89 2845.2
168.49 -1401.53 2954.0
177.20 -1409.92 2971.7
176.46 -1345.54 2836.0
243.07 -1347.93 2841.1
256.50 -1380.59 2909.9
262.61 -1373.07 2894.0
270.40 -1374.51 2897.1
287.09 -1419.93 2992.8
283.53 -1365.42 2877.9
311.14 -1355.70 2857.4
338.52 -1407.94 2967.5
366.69 -1398.01 2946.6
380.96 -1422.77 2998.8
439.36 -1410.59 2973.1
447.74 -1412.70 2977.6
460.66 -1428.82 3011.6
447.44 -1364.69 2876.4
452.06 -1356.18 2858.5
469.09 -1384.58 2918.3
473.58 -1375.63 2899.5
490.27 -1401.87 2954.8
504.83 -1421.30 2995.7
504.02 -1397.51 2945.6
518.45 -1416.06 2984.7
530.83 -1407.84 2967.3
528.91 -1363.24 2873.3
558.13 -1380.24 2909.2
592.74 -1390.66 2931.1
597.91 -1385.02 2919.3
677.73 -1362.91 2872.7
700.23 -1392.85 2935.7
701.75 -1380.87 2910.5
698.84 -1360.52 2867.6
731.81 -1380.63 2910.0
756.88 -1413.35 2979.0
761.95 -1408.45 2968.6
754.65 -1381.01 2910.8
757.09 -1358.30 2862.9
783.10 -1391.33 2932.6
870.71 -1397.71 2946.0
881.21 -1402.27 2955.6
1210.49 -1367.41 2882.1
-1600.26 -1314.50 2755.6
-1541.83 -1313.41 2753.3
-1450.92 -1334.85 2798.2
-1422.17 -1314.97 2756.5
-1406.85 -1327.49 2782.8
-1387.23 -1315.72 2758.1
-1180.68 -1316.64 2760.0
-1036.70 -1333.93 2796.3
-1041.84 -1349.98 2829.9
-1018.62 -1329.26 2786.5
-1025.13 -1366.84 2865.3
-999.16 -1341.94 2813.1
-918.00 -1351.30 2832.7
-862.93 -1323.16 2773.7
-876.65 -1355.49 2841.5
-857.29 -1336.80 2802.3
-847.11 -1332.20 2792.7
-870.75 -1381.19 2895.4
-866.35 -1386.16 2905.8
-832.77 -1344.13 2817.7
-827.23 -1346.99 2823.7
-848.52 -1393.99 2922.2
-811.13 -1369.25 2870.3
-794.09 -1352.90 2836.0
-788.63 -1356.15 2842.9
-793.97 -1378.21 2889.1
-770.41 -1376.26 2885.0
-736.87 -1329.25 2786.5
-720.15 -1338.46 2805.8
-740.51 -1390.34 2914.5
-709.64 -1346.12 2821.8
-712.10 -1364.86 2861.1
-669.75 -1369.27 2870.4
-672.82 -1390.99 2915.9
-647.85 -1402.41 2939.8
-633.96 -1388.67 2911.0
-586.60 -1349.18 2828.2
-576.60 -1342.97 2815.2
-589.11 -1389.70 2913.2
-589.07 -1407.64 2950.8
-576.58 -1395.92 2926.2
-565.59 -1387.57 2908.7
-556.90 -1384.73 2902.8
-543.53 -1369.99 2871.9
-533.80 -1364.15 2859.6
-524.45 -1359.15 2849.2
-507.89 -1335.02 2798.6
-501.75 -1357.69 2846.1
-462.76 -1351.55 2833.2
-465.47 -1381.40 2895.8
-460.66 -1389.53 2912.8
-443.11 -1358.86 2848.5
-431.21 -1344.79 2819.0
-437.08 -1386.60 2906.7
-401.47 -1393.80 2921.8
-382.05 -1351.88 2833.9
-387.37 -1397.57 2929.7
-374.66 -1406.88 2949.2
-329.14 -1345.80 2821.2
-331.01 -1384.24 2901.7
-322.57 -1413.17 2962.4
-284.82 -1343.78 2816.9
-276.16 -1337.20 2803.1
-253.94 -1334.99 2798.5
-210.69 -1336.82 2802.3
-168.80 -1350.42 2830.9
-167.29 -1399.18 2933.1
-158.58 -1389.45 2912.7
-145.43 -1338.00 2804.8
-116.58 -1340.67 2810.4
-113.34 -1390.27 2914.4
-105.36 -1384.79 2902.9
-58.70 -1349.99 2829.9
-51.25 -1347.03 2823.7
-43.77 -1342.34 2813.9
-36.50 -1343.24 2815.8
36.49 -1342.81 2814.9
43.94 -1347.51 2824.7
58.64 -1348.70 2827.2
67.71 -1384.36 2902.0
74.41 -1369.22 2870.3
124.25 -1344.86 2819.2
162.15 -1356.18 2842.9
170.52 -1364.18 2859.7
249.82 -1351.98 2834.1
260.96 -1371.90 2875.9
274.83 -1404.67 2944.6
284.73 -1415.97 2968.3
311.91 -1399.77 2934.3
321.59 -1408.88 2953.4
339.92 -1389.90 2913.6
356.27 -1425.09 2987.4
374.09 -1404.74 2944.7
373.72 -1375.29 2883.0
387.01 -1396.29 2927.0
394.01 -1394.19 2922.6
406.64 -1411.74 2959.4
415.64 -1365.67 2862.8
437.21 -1387.02 2907.6
465.04 -1402.74 2940.5
474.52 -1408.25 2952.1
484.93 -1416.29 2968.9
513.14 -1409.22 2954.1
510.08 -1380.22 2893.3
536.36 -1430.30 2998.3
547.73 -1419.46 2975.6
579.77 -1367.67 2867.0
595.51 -1387.00 2907.5
595.61 -1369.91 2871.7
636.54 -1377.91 2888.5
646.10 -1382.36 2897.8
658.95 -1362.33 2855.8
670.00 -1354.73 2839.9
687.68 -1360.57 2852.1
696.67 -1363.69 2858.7
724.57 -1403.37 2941.8
755.24 -1432.62 3003.2
730.23 -1371.04 2874.1
740.01 -1375.37 2883.2
738.90 -1359.57 2850.0
760.31 -1371.55 2875.1
773.92 -1382.54 2898.2
850.50 -1360.80 2852.6
1378.92 -1371.47 2875.0
-1490.67 -1325.84 2764.3
-1475.72 -1318.88 2749.8
-1482.52 -1331.39 2775.9
-1439.98 -1331.98 2777.1
-1365.14 -1336.24 2786.0
-1279.27 -1329.58 2772.1
-1154.28 -1326.35 2765.4
-844.79 -1324.46 2761.4
-858.18 -1356.95 2829.2
-878.83 -1401.58 2922.2
-871.51 -1401.99 2923.1
-831.22 -1348.90 2812.4
-817.51 -1338.40 2790.5
-825.43 -1363.43 2842.7
-822.29 -1370.49 2857.4
-809.37 -1361.21 2838.0
-787.15 -1335.99 2785.5
-791.38 -1355.61 2826.4
-807.05 -1395.37 2909.3
-795.38 -1388.16 2894.2
-773.89 -1389.99 2898.0
-745.21 -1351.60 2818.0
-730.02 -1337.16 2787.9
-736.14 -1375.62 2868.1
-721.34 -1375.76 2868.4
-728.28 -1403.46 2926.1
-690.79 -1404.34 2928.0
-653.67 -1343.65 2801.4
-654.65 -1360.79 2837.2
-662.10 -1391.92 2902.1
-653.48 -1389.59 2897.2
-648.24 -1394.46 2907.4
-640.99 -1395.09 2908.7
-632.76 -1393.59 2905.5
-608.17 -1389.03 2896.0
-598.71 -1384.52 2886.6
-583.00 -1400.71 2920.4
-574.09 -1397.45 2913.6
-565.21 -1394.18 2906.8
-552.95 -1382.37 2882.2
-537.45 -1362.02 2839.7
-534.10 -1372.35 2861.3
-531.47 -1384.82 2887.3
-511.26 -1351.20 2817.2
-496.50 -1331.20 2775.5
-506.13 -1376.96 2870.9
-492.73 -1402.37 2923.9
-463.45 -1405.55 2930.5
-439.47 -1355.04 2825.2
-427.11 -1362.32 2840.4
-434.27 -1409.47 2938.7
-426.91 -1410.33 2940.5
-387.55 -1352.77 2820.4
-382.16 -1359.59 2834.7
-367.80 -1388.63 2895.2
-363.84 -1402.32 2923.7
-336.76 -1384.45 2886.5
-321.99 -1353.81 2822.6
-317.14 -1364.45 2844.8
-314.63 -1385.86 2889.4
-299.95 -1353.45 2821.9
-281.99 -1372.84 2862.3
-277.04 -1385.19 2888.0
-263.15 -1352.28 2819.4
-253.28 -1338.75 2791.2
-246.01 -1338.57 2790.8
-231.39 -1337.75 2789.1
-195.65 -1340.55 2795.0
-174.27 -1401.74 2922.5
-157.10 -1383.93 2885.4
-145.10 -1342.19 2798.4
-80.46 -1353.15 2821.2
-74.22 -1373.12 2862.9
-67.18 -1380.97 2879.2
-58.49 -1352.50 2819.9
-36.44 -1348.32 2811.2
-14.56 -1346.66 2807.7
21.95 -1353.57 2822.1
29.12 -1346.62 2807.6
36.28 -1342.26 2798.5
43.66 -1346.11 2806.6
66.66 -1370.16 2856.7
74.27 -1373.98 2864.7
80.41 -1352.29 2819.4
116.28 -1344.44 2803.1
124.96 -1359.88 2835.3
160.09 -1346.20 2806.7
216.30 -1379.84 2876.9
225.68 -1391.70 2901.6
230.13 -1373.35 2863.4
234.90 -1358.02 2831.4
241.58 -1354.33 2823.7
251.08 -1366.16 2848.4
262.33 -1386.59 2891.0
273.71 -1406.58 2932.6
280.91 -1404.57 2928.5
281.28 -1369.40 2855.1
289.17 -1371.70 2859.9
297.45 -1375.71 2868.3
307.78 -1388.75 2895.5
330.05 -1419.96 2960.5
332.78 -1368.11 2852.4
344.91 -1387.12 2892.1
355.92 -1400.96 2920.9
375.99 -1419.56 2959.7
368.12 -1362.06 2839.8
375.38 -1361.69 2839.0
383.72 -1365.17 2846.3
398.37 -1390.54 2899.2
413.03 -1415.02 2950.2
403.85 -1358.42 2832.2
422.91 -1372.60 2861.8
428.59 -1367.04 2850.2
443.49 -1390.60 2899.3
479.93 -1432.05 2985.7
479.49 -1408.04 2935.7
492.27 -1422.96 2966.8
498.13 -1417.76 2956.0
506.23 -1418.98 2958.5
505.67 -1396.26 2911.1
511.63 -1371.76 2860.0
537.59 -1420.76 2962.2
545.22 -1420.66 2962.0
553.26 -1402.09 2923.3
602.01 -1409.77 2939.3
610.48 -1411.72 2943.4
614.50 -1403.48 2926.2
611.46 -1379.51 2876.2
616.39 -1357.51 2830.3
643.32 -1400.18 2919.3
665.12 -1398.27 2915.3
654.04 -1359.52 2834.5
704.79 -1372.49 2861.6
739.23 -1424.55 2970.1
718.69 -1370.70 2857.8
727.35 -1359.19 2833.8
750.71 -1388.81 2895.6
777.58 -1424.28 2969.6
778.37 -1411.76 2943.4
772.48 -1387.47 2892.8
777.91 -1383.78 2885.1
793.07 -1397.32 2913.3
808.85 -1411.67 2943.3
-1488.64 -1312.26 2721.3
-1491.29 -1327.18 2752.2
-1508.24 -1348.71 2796.9
-1171.20 -1344.71 2788.6
-1177.89 -1360.79 2821.9
-959.54 -1331.90 2762.0
-896.12 -1333.43 2765.2
-902.30 -1353.45 2806.7
-877.91 -1327.58 2753.0
-845.32 -1332.46 2763.2
-851.31 -1353.37 2806.5
-864.67 -1386.45 2875.1
-834.59 -1373.76 2848.8
-816.80 -1356.48 2813.0
-802.95 -1345.48 2790.2
-779.99 -1331.00 2760.1
-807.75 -1391.12 2884.8
-807.98 -1404.53 2912.6
-780.93 -1370.30 2841.6
-773.74 -1370.62 2842.3
-766.55 -1370.94 2843.0
-754.20 -1361.96 2824.3
-751.45 -1370.28 2841.6
-759.16 -1398.06 2899.2
-743.32 -1396.54 2896.1
-720.57 -1367.62 2836.1
-703.20 -1348.40 2796.2
-725.17 -1405.02 2913.6
-699.94 -1399.88 2903.0
-691.91 -1398.85 2900.8
-666.22 -1392.33 2887.3
-654.21 -1382.76 2867.5
-638.31 -1364.67 2830.0
-625.36 -1352.51 2804.7
-635.30 -1390.18 2882.9
-622.80 -1395.68 2894.3
-586.23 -1329.73 2757.5
-582.11 -1336.70 2772.0
-599.96 -1394.91 2892.7
-588.68 -1403.77 2911.0
-578.71 -1397.93 2898.9
-554.30 -1374.66 2850.7
-529.02 -1347.91 2795.2
-544.85 -1407.54 2918.9
-516.53 -1392.40 2887.5
-499.79 -1408.49 2920.8
-483.68 -1384.08 2870.2
-434.04 -1368.33 2837.5
-422.39 -1354.55 2809.0
-430.80 -1405.78 2915.2
-409.87 -1411.77 2927.6
-396.62 -1391.92 2886.5
-361.41 -1371.87 2844.9
-347.16 -1373.87 2849.0
-340.71 -1377.67 2856.9
-339.56 -1403.50 2910.5
-325.92 -1409.78 2923.5
-314.21 -1391.52 2885.6
-304.99 -1383.62 2869.2
-294.73 -1370.51 2842.1
-283.98 -1354.37 2808.6
-279.41 -1367.63 2836.1
-276.33 -1389.11 2880.6
-264.56 -1366.88 2834.5
-253.84 -1348.96 2797.4
-245.52 -1343.15 2785.3
-238.34 -1343.39 2785.8
-233.32 -1356.19 2812.4
-227.23 -1363.35 2827.2
-216.65 -1343.21 2785.5
-201.62 -1339.30 2777.4
-168.84 -1365.39 2831.5
-162.13 -1370.76 2842.6
-152.63 -1351.83 2803.3
-137.99 -1350.82 2801.3
-130.44 -1347.92 2795.2
-116.72 -1356.85 2813.8
-108.80 -1349.15 2797.8
-86.56 -1341.64 2782.2
-81.38 -1376.02 2853.5
-73.35 -1364.38 2829.4
-65.58 -1355.33 2810.6
-43.40 -1345.51 2790.2
-36.40 -1354.23 2808.3
-14.44 -1343.02 2785.1
-7.30 -1357.36 2814.8
0.00 -1360.84 2822.0
22.14 -1372.97 2847.2
29.43 -1368.60 2838.1
36.46 -1356.41 2812.8
43.53 -1349.42 2798.3
123.53 -1351.52 2802.7
162.18 -1371.19 2843.5
212.70 -1364.23 2829.1
219.16 -1358.81 2817.8
228.96 -1373.75 2848.8
238.99 -1389.11 2880.6
257.83 -1370.17 2841.4
295.14 -1407.57 2918.9
294.64 -1370.08 2841.2
300.51 -1363.29 2827.1
318.51 -1410.54 2925.1
340.81 -1408.68 2921.2
339.97 -1374.65 2850.7
350.00 -1385.10 2872.3
367.71 -1424.89 2954.8
381.79 -1420.26 2945.2
380.69 -1388.38 2879.1
380.21 -1359.97 2820.2
414.44 -1352.39 2804.5
447.92 -1388.54 2879.5
460.45 -1404.00 2911.5
458.68 -1376.03 2853.5
461.84 -1363.54 2827.6
479.95 -1394.87 2892.6
479.33 -1371.63 2844.4
480.75 -1354.83 2809.6
508.42 -1411.43 2926.9
520.19 -1402.26 2907.9
522.54 -1388.45 2879.3
519.33 -1360.51 2821.3
525.12 -1356.57 2813.2
544.31 -1386.88 2876.0
549.68 -1381.63 2865.1
556.72 -1380.65 2863.1
572.01 -1364.02 2828.6
604.87 -1424.11 2953.2
612.63 -1424.37 2953.8
609.06 -1398.59 2900.3
599.95 -1360.87 2822.1
624.98 -1367.60 2836.0
650.95 -1407.87 2919.6
668.58 -1429.37 2964.1
670.11 -1416.38 2937.2
656.46 -1371.92 2845.0
730.66 -1359.02 2818.3
749.98 -1381.15 2864.1
744.73 -1358.03 2816.2
770.32 -1377.69 2857.0
782.77 -1360.70 2821.7
808.24 -1391.96 2886.6
-1152.48 -1330.34 2744.0
-867.42 -1340.56 2765.1
-848.23 -1332.93 2749.4
-863.64 -1368.64 2823.0
-869.73 -1390.08 2867.2
-855.49 -1379.11 2844.6
-847.84 -1378.65 2843.7
-852.26 -1398.01 2883.6
-828.70 -1371.39 2828.7
-808.44 -1349.81 2784.2
-793.91 -1337.49 2758.8
-783.22 -1331.48 2746.4
-798.47 -1369.85 2825.5
-774.42 -1366.19 2818.0
-761.10 -1368.51 2822.7
-754.20 -1382.69 2852.0
-729.99 -1351.57 2787.8
-742.45 -1388.38 2863.7
-739.00 -1395.90 2879.2
-710.74 -1356.21 2797.4
-688.19 -1340.54 2765.1
-699.75 -1377.41 2841.1
-683.73 -1360.19 2805.6
-670.88 -1363.63 2812.7
-671.71 -1395.67 2878.8
-645.25 -1355.74 2796.4
-651.56 -1384.57 2855.9
-654.60 -1407.01 2902.2
-595.47 -1374.72 2835.6
-584.88 -1367.16 2820.0
-568.02 -1344.56 2773.3
-561.78 -1346.83 2778.0
-561.52 -1363.70 2812.8
-558.75 -1393.16 2873.6
-530.42 -1340.40 2764.8
-536.89 -1375.32 2836.8
-501.68 -1379.62 2845.7
-479.65 -1338.73 2761.3
-482.40 -1366.80 2819.2
-470.17 -1373.79 2833.6
-454.11 -1347.93 2780.3
-444.52 -1408.89 2906.0
-433.36 -1397.22 2882.0
-363.09 -1385.66 2858.1
-327.94 -1362.77 2810.9
-330.63 -1405.19 2898.4
-318.50 -1385.12 2857.0
-309.90 -1379.79 2846.0
-303.92 -1386.18 2859.2
-287.65 -1344.78 2773.8
-203.30 -1357.77 2800.6
-196.20 -1358.84 2802.8
-166.74 -1355.66 2796.2
-160.69 -1365.84 2817.2
-151.79 -1351.62 2787.9
-130.31 -1353.80 2792.4
-124.59 -1370.49 2826.8
-118.99 -1390.67 2868.4
-110.37 -1375.96 2838.1
-87.48 -1363.18 2811.8
-80.32 -1365.45 2816.4
-72.74 -1360.29 2805.8
-65.41 -1359.05 2803.2
-50.62 -1352.19 2789.1
-44.19 -1377.10 2840.5
-36.48 -1364.49 2814.5
36.73 -1373.65 2833.4
43.96 -1370.12 2826.1
50.44 -1347.39 2779.2
196.51 -1361.02 2807.3
260.11 -1351.11 2786.8
275.45 -1392.13 2871.5
288.31 -1418.79 2926.5
294.39 -1411.54 2911.5
289.70 -1354.34 2793.5
306.39 -1364.16 2813.8
319.70 -1390.33 2867.8
332.27 -1412.13 2912.7
337.44 -1402.25 2892.3
343.57 -1396.70 2880.9
372.74 -1422.51 2934.1
375.85 -1405.66 2899.4
374.28 -1372.36 2830.7
404.68 -1351.36 2787.4
419.82 -1353.56 2791.9
443.02 -1404.13 2896.2
453.57 -1413.63 2915.8
456.33 -1398.92 2885.5
457.93 -1381.19 2848.9
467.93 -1388.93 2864.9
483.91 -1413.92 2916.4
480.05 -1381.08 2848.7
480.88 -1362.49 2810.3
509.46 -1421.92 2932.9
533.20 -1404.35 2896.7
526.59 -1367.68 2821.0
532.53 -1364.14 2813.7
572.37 -1354.86 2794.6
598.64 -1399.32 2886.3
615.15 -1420.16 2929.3
605.94 -1381.85 2850.3
642.85 -1414.27 2917.1
657.40 -1429.46 2948.5
660.96 -1420.69 2930.4
647.74 -1376.45 2839.1
679.75 -1366.82 2819.3
685.02 -1362.74 2810.9
712.52 -1359.61 2804.4
724.38 -1368.27 2822.2
765.10 -1375.72 2837.6
763.96 -1360.57 2806.4
774.66 -1366.61 2818.8
805.51 -1407.77 2903.7
826.52 -1431.11 2951.9
800.20 -1372.81 2831.6
-1499.58 -1317.39 2702.8
-1119.79 -1358.20 2786.6
-1096.50 -1338.59 2746.3
-1022.17 -1343.83 2757.1
-1008.19 -1334.78 2738.5
-866.12 -1334.68 2738.3
-882.89 -1371.76 2814.4
-855.92 -1340.94 2751.2
-842.60 -1353.92 2777.8
-835.11 -1353.45 2776.8
-814.16 -1354.54 2779.1
-834.69 -1401.09 2874.6
-807.68 -1367.96 2806.6
-783.22 -1338.59 2746.4
-810.51 -1397.94 2868.1
-791.90 -1404.50 2881.6
-769.08 -1390.26 2852.4
-735.93 -1369.85 2810.5
-736.29 -1384.22 2840.0
-738.51 -1402.43 2877.3
-717.40 -1376.23 2823.6
-700.29 -1357.27 2784.7
-707.61 -1385.74 2843.1
-692.27 -1384.53 2840.6
-668.29 -1350.95 2771.7
-678.82 -1387.16 2846.0
-681.72 -1408.39 2889.6
-651.76 -1361.45 2793.3
-635.27 -1341.92 2753.2
-649.32 -1387.18 2846.0
-587.78 -1331.35 2731.5
-599.34 -1374.10 2819.2
-583.20 -1370.53 2811.9
-560.22 -1333.18 2735.3
-546.84 -1335.14 2739.3
-561.93 -1390.04 2851.9
-549.25 -1376.78 2824.7
-525.48 -1335.01 2739.0
-539.71 -1389.95 2851.7
-515.71 -1385.04 2841.6
-493.12 -1343.59 2756.6
-493.78 -1406.52 2885.7
-487.07 -1408.74 2890.3
-448.18 -1359.00 2788.2
-437.81 -1395.04 2862.2
-433.20 -1404.16 2880.9
-395.34 -1402.33 2877.1
-379.69 -1372.71 2816.4
-364.43 -1398.20 2868.7
-357.30 -1399.44 2871.2
-322.08 -1345.58 2760.7
-327.75 -1400.38 2873.1
-314.19 -1373.68 2818.3
-304.23 -1361.79 2793.9
-304.85 -1397.86 2867.9
-295.16 -1387.25 2846.2
-279.61 -1347.84 2765.3
-275.76 -1364.27 2799.0
-266.92 -1356.25 2782.6
-195.87 -1363.85 2798.2
-185.92 -1344.36 2758.2
-180.48 -1357.23 2784.6
-168.17 -1374.65 2820.3
-150.17 -1344.34 2758.1
-144.15 -1354.99 2780.0
-107.53 -1347.76 2765.2
-35.82 -1346.74 2763.1
28.65 -1346.77 2763.1
37.09 -1394.49 2861.0
44.34 -1389.19 2850.2
51.09 -1372.06 2815.0
129.84 -1356.15 2782.4
161.39 -1379.19 2829.6
199.77 -1390.96 2853.8
204.85 -1375.45 2822.0
246.53 -1363.15 2796.7
285.04 -1374.02 2819.0
293.77 -1380.71 2832.8
301.99 -1351.76 2773.4
309.21 -1351.89 2773.6
331.88 -1386.54 2844.7
349.09 -1426.72 2927.2
359.97 -1409.89 2892.6
364.20 -1397.33 2866.9
370.95 -1394.79 2861.6
375.79 -1385.27 2842.1
383.90 -1387.93 2847.6
393.13 -1394.50 2861.1
404.43 -1408.01 2888.8
417.65 -1427.59 2929.0
440.97 -1429.34 2932.5
447.48 -1425.86 2925.4
441.21 -1382.45 2836.3
460.10 -1418.01 2909.3
478.79 -1428.78 2931.4
481.36 -1413.99 2901.0
486.92 -1408.31 2889.4
495.45 -1411.29 2895.5
507.25 -1423.34 2920.2
520.75 -1418.86 2911.0
512.97 -1377.69 2826.6
514.55 -1362.48 2795.4
578.15 -1375.84 2822.8
602.12 -1397.50 2867.2
613.23 -1372.48 2815.9
631.14 -1395.94 2864.0
627.67 -1372.12 2815.1
661.31 -1429.04 2931.9
657.00 -1387.83 2847.4
664.28 -1387.61 2846.9
668.44 -1380.96 2833.3
668.13 -1365.31 2801.2
683.12 -1380.92 2833.2
686.28 -1372.55 2816.0
719.85 -1367.00 2804.6
725.62 -1364.16 2798.8
751.12 -1370.97 2812.8
770.73 -1393.24 2858.5
770.59 -1379.73 2830.7
775.59 -1375.58 2822.2
790.95 -1389.71 2851.2
797.90 -1388.94 2849.7
1116.58 -1381.03 2833.4
-1088.91 -1327.76 2709.7
-1086.73 -1333.72 2721.9
-1072.42 -1324.76 2703.6
-1063.86 -1322.82 2699.6
-1026.29 -1328.56 2711.3
-1020.94 -1330.75 2715.8
-926.79 -1327.00 2708.2
-866.12 -1341.78 2738.3
-842.35 -1337.85 2730.3
-833.12 -1334.41 2723.3
-843.11 -1361.95 2779.5
-858.30 -1398.43 2853.9
-855.53 -1406.05 2869.5
-832.94 -1380.92 2818.2
-838.83 -1402.99 2863.2
-793.88 -1364.03 2783.7
-809.48 -1403.60 2864.5
-758.21 -1364.78 2785.3
-765.98 -1392.03 2840.9
-752.51 -1394.35 2845.6
-713.24 -1334.69 2723.8
-719.02 -1358.95 2773.4
-725.89 -1385.80 2828.2
-722.71 -1393.79 2844.5
-723.40 -1409.52 2876.6
-685.91 -1409.09 2875.7
-664.68 -1380.49 2817.3
-647.02 -1358.74 2772.9
-639.93 -1358.94 2773.4
-646.67 -1388.88 2834.5
-646.17 -1403.74 2864.8
-634.32 -1394.02 2844.9
-631.10 -1403.28 2863.8
-624.53 -1405.19 2867.7
-610.34 -1389.82 2836.4
-609.44 -1404.68 2866.7
-595.08 -1405.87 2869.1
-582.28 -1393.04 2842.9
-566.57 -1372.84 2801.7
-568.53 -1395.48 2847.9
-551.63 -1390.10 2836.9
-525.94 -1361.68 2778.9
-513.58 -1386.68 2829.9
-492.72 -1389.92 2836.6
-467.73 -1360.00 2775.5
-445.08 -1335.24 2725.0
-441.45 -1345.70 2746.3
-440.37 -1364.44 2784.6
-444.36 -1399.74 2856.6
-437.91 -1402.80 2862.9
-422.46 -1376.63 2809.5
-421.75 -1398.43 2853.9
-413.96 -1397.11 2851.2
-400.72 -1377.01 2810.2
-393.42 -1376.97 2810.1
-383.80 -1368.63 2793.1
-385.55 -1401.34 2859.9
-372.20 -1406.91 2871.2
-350.36 -1408.88 2875.3
-329.14 -1352.35 2759.9
-307.40 -1351.13 2757.4
-300.71 -1353.19 2761.6
-304.16 -1402.12 2861.5
-296.90 -1402.86 2863.0
-283.93 -1375.99 2808.1
-277.68 -1381.09 2818.6
-267.25 -1365.15 2786.0
-248.27 -1340.68 2736.1
-223.58 -1363.14 2781.9
-213.97 -1348.00 2751.0
-182.97 -1383.27 2823.0
-175.96 -1385.65 2827.9
-142.65 -1348.07 2751.2
-137.83 -1371.07 2798.1
-92.63 -1346.71 2748.4
-57.00 -1346.65 2748.3
-51.41 -1388.06 2832.8
-43.12 -1358.19 2771.8
-7.17 -1354.36 2764.0
0.00 -1384.73 2826.0
7.23 -1366.68 2789.2
14.29 -1349.95 2755.0
21.80 -1373.25 2802.6
29.26 -1382.47 2821.4
36.34 -1373.63 2803.3
43.38 -1366.55 2788.9
49.98 -1349.35 2753.8
72.64 -1372.92 2801.9
79.77 -1370.64 2797.2
86.68 -1365.27 2786.3
94.69 -1376.62 2809.4
101.25 -1366.84 2789.5
108.02 -1361.02 2777.6
128.46 -1348.78 2752.6
157.96 -1356.99 2769.4
248.56 -1381.73 2819.8
254.20 -1372.70 2801.4
258.16 -1355.34 2766.0
280.86 -1361.09 2777.7
292.08 -1380.08 2816.5
293.81 -1354.37 2764.0
300.52 -1352.32 2759.8
328.42 -1379.38 2815.1
341.92 -1404.86 2867.1
348.72 -1402.32 2861.9
363.18 -1372.82 2801.7
385.20 -1427.50 2913.3
413.92 -1422.40 2902.8
446.62 -1430.70 2919.8
437.42 -1355.29 2765.9
490.77 -1427.00 2912.3
496.32 -1421.29 2900.6
505.21 -1425.14 2908.4
508.81 -1414.20 2886.1
500.88 -1371.98 2800.0
503.29 -1358.88 2773.2
516.81 -1375.74 2807.6
559.18 -1372.53 2801.1
573.54 -1389.72 2836.2
591.68 -1415.55 2888.9
598.01 -1412.79 2883.3
606.49 -1364.60 2784.9
643.98 -1399.00 2855.1
665.54 -1429.40 2917.1
646.62 -1373.16 2802.4
650.92 -1366.92 2789.6
686.46 -1380.22 2816.8
724.23 -1368.80 2793.5
759.16 -1366.49 2788.8
-1181.68 -1336.43 2713.0
-1188.24 -1351.89 2744.4
-1134.33 -1322.22 2684.2
-1082.49 -1326.93 2693.8
-1077.65 -1329.57 2699.1
-1021.17 -1328.92 2697.8
-973.33 -1340.09 2720.5
-950.19 -1337.31 2714.8
-938.13 -1330.18 2700.4
-879.93 -1326.87 2693.7
-883.26 -1342.56 2725.5
-825.98 -1329.96 2699.9
-832.07 -1351.22 2743.1
-841.59 -1378.46 2798.4
-832.49 -1375.42 2792.2
-807.54 -1345.89 2732.3
-788.48 -1337.60 2715.4
-784.38 -1342.63 2725.6
-773.54 -1336.11 2712.4
-777.74 -1355.70 2752.2
-742.77 -1344.06 2728.5
-739.38 -1350.79 2742.2
-741.28 -1367.41 2775.9
-702.75 -1348.71 2738.0
-696.45 -1350.25 2741.1
-706.85 -1384.55 2810.7
-672.76 -1359.84 2760.6
-664.66 -1357.90 2756.6
-678.54 -1401.33 2844.8
-598.75 -1370.63 2782.5
-580.55 -1345.17 2730.8
-584.45 -1370.93 2783.1
-582.96 -1384.54 2810.7
-579.53 -1393.81 2829.5
-572.07 -1393.51 2828.9
-570.08 -1406.69 2855.7
-541.65 -1409.78 2862.0
-481.28 -1344.75 2729.9
-495.77 -1405.92 2854.1
-481.61 -1407.77 2857.9
-463.91 -1399.11 2840.3
-448.57 -1374.64 2790.6
-450.04 -1401.78 2845.7
-416.51 -1413.16 2868.8
-406.27 -1403.50 2849.2
-401.75 -1413.55 2869.6
-384.02 -1376.67 2794.7
-378.56 -1383.20 2808.0
-380.33 -1416.93 2876.5
-315.18 -1360.98 2762.9
-222.42 -1363.23 2767.5
-218.20 -1381.96 2805.5
-183.67 -1342.22 2724.8
-134.38 -1343.80 2728.0
-100.04 -1357.65 2756.1
-92.42 -1350.68 2742.0
-63.68 -1344.38 2729.2
-58.67 -1393.48 2828.9
-52.12 -1414.74 2872.0
-43.02 -1362.21 2765.4
-7.12 -1353.50 2747.7
0.00 -1379.58 2800.7
7.14 -1357.48 2755.8
21.90 -1387.06 2815.8
29.92 -1421.06 2884.9
36.13 -1372.86 2787.0
71.73 -1362.86 2766.7
82.09 -1418.00 2878.7
97.52 -1425.33 2893.5
100.79 -1367.81 2776.8
109.93 -1392.43 2826.7
117.81 -1398.94 2840.0
234.55 -1350.42 2741.5
244.92 -1368.68 2778.5
253.62 -1376.79 2795.0
260.48 -1374.77 2790.9
264.24 -1356.89 2754.6
286.45 -1395.50 2833.0
297.06 -1411.05 2864.5
292.94 -1357.51 2755.9
306.69 -1355.14 2751.0
325.97 -1407.58 2857.5
335.79 -1417.79 2878.2
341.58 -1410.86 2864.1
349.68 -1413.58 2869.7
343.60 -1360.08 2761.1
374.80 -1396.31 2834.6
387.80 -1416.98 2876.6
392.46 -1406.93 2856.2
387.17 -1362.25 2765.5
421.06 -1403.54 2849.3
447.09 -1415.80 2874.2
442.43 -1355.84 2752.4
468.41 -1412.66 2867.8
484.60 -1416.51 2875.6
487.63 -1403.79 2849.8
488.53 -1385.40 2812.5
486.90 -1360.46 2761.8
495.94 -1365.64 2772.4
510.66 -1386.08 2813.8
519.39 -1389.92 2821.6
546.37 -1365.92 2772.9
560.21 -1382.33 2806.2
567.25 -1381.77 2805.1
603.68 -1381.91 2805.4
625.83 -1415.57 2873.7
883.41 -1364.61 2770.3
1066.88 -1369.65 2780.5
-1461.98 -1342.49 2711.1
-1434.60 -1323.71 2673.2
-1421.19 -1317.71 2661.0
-1186.08 -1348.46 2723.1
-1200.20 -1372.69 2772.1
-1154.73 -1328.63 2683.1
-1076.09 -1326.02 2677.8
-1090.48 -1352.48 2731.3
-1085.20 -1354.73 2735.8
-1042.65 -1354.73 2735.8
-1034.04 -1352.75 2731.8
-1000.11 -1335.81 2697.6
-996.93 -1340.95 2708.0
-960.21 -1328.98 2683.8
-963.23 -1352.77 2731.9
-949.14 -1352.87 2732.1
-904.12 -1328.36 2682.6
-890.89 -1339.84 2705.7
-890.05 -1349.20 2724.6
-862.89 -1329.14 2684.1
-861.41 -1337.64 2701.3
-808.25 -1330.83 2687.5
-787.87 -1355.70 2737.8
-784.18 -1361.62 2749.7
-795.16 -1393.35 2813.8
-795.11 -1406.17 2839.7
-784.56 -1400.48 2828.2
-761.39 -1371.93 2770.5
-725.27 -1331.99 2689.9
-727.99 -1349.96 2726.2
-700.42 -1337.80 2701.6
-683.55 -1359.98 2746.4
-655.56 -1346.36 2718.9
-673.06 -1397.34 2821.8
-650.41 -1411.68 2850.8
-636.97 -1398.40 2824.0
-597.77 -1375.60 2778.0
-578.91 -1382.16 2791.2
-556.48 -1380.36 2787.6
-523.72 -1370.28 2767.2
-520.66 -1400.65 2828.5
-478.66 -1364.54 2755.6
-459.09 -1414.30 2856.1
-409.25 -1395.84 2818.8
-401.30 -1393.61 2814.3
-400.96 -1418.23 2864.0
-386.32 -1392.21 2811.5
-376.86 -1384.22 2795.4
-376.18 -1408.84 2845.1
-358.75 -1370.43 2767.5
-352.46 -1373.88 2774.5
-334.64 -1389.48 2806.0
-250.28 -1365.82 2758.2
-239.24 -1343.95 2714.0
-220.40 -1357.93 2742.3
-216.80 -1380.29 2787.4
-196.09 -1387.12 2801.2
-112.74 -1345.88 2717.9
-98.96 -1350.09 2726.4
-63.91 -1356.27 2738.9
-57.16 -1364.77 2756.1
-49.30 -1345.30 2716.8
-42.43 -1350.67 2727.6
-35.79 -1367.13 2760.8
-28.19 -1346.30 2718.8
0.00 -1365.44 2757.4
7.13 -1361.45 2749.4
29.02 -1385.80 2798.5
35.64 -1361.36 2749.2
88.26 -1404.84 2837.0
94.58 -1389.66 2806.3
106.99 -1362.40 2751.3
115.68 -1380.91 2788.7
141.43 -1350.67 2727.6
179.70 -1372.89 2772.5
186.50 -1370.05 2766.7
191.20 -1352.58 2731.5
198.06 -1351.05 2728.4
210.21 -1384.49 2795.9
213.53 -1359.48 2745.4
242.70 -1363.42 2753.3
250.77 -1368.47 2763.6
262.38 -1392.09 2811.3
270.82 -1398.01 2823.2
270.69 -1360.60 2747.7
281.28 -1377.55 2781.9
299.72 -1431.17 2890.2
304.11 -1416.72 2861.0
316.07 -1372.05 2770.8
324.22 -1376.14 2779.0
336.13 -1395.66 2818.5
351.27 -1427.52 2882.8
348.02 -1384.82 2796.6
356.44 -1361.61 2749.7
379.95 -1422.94 2873.6
387.89 -1424.75 2877.2
387.05 -1394.85 2816.8
390.63 -1381.68 2790.2
398.64 -1384.36 2795.6
399.06 -1361.07 2748.6
409.61 -1372.54 2771.8
427.75 -1408.63 2844.6
433.77 -1404.23 2835.8
436.70 -1390.17 2807.4
435.42 -1363.36 2753.2
472.26 -1409.41 2846.2
488.29 -1434.82 2897.5
482.75 -1397.04 2821.3
567.04 -1370.94 2768.5
625.99 -1440.53 2909.1
633.06 -1439.46 2906.9
637.17 -1398.84 2824.9
650.61 -1412.12 2851.7
642.92 -1379.74 2786.3
888.06 -1379.02 2784.9
972.02 -1385.50 2797.9
1156.51 -1372.00 2770.7
1206.90 -1388.67 2804.3
1199.12 -1371.45 2769.6
-1452.70 -1321.89 2655.6
-1469.04 -1343.13 2698.2
-1436.76 -1319.90 2651.6
-1375.96 -1320.92 2653.6
-1314.45 -1386.67 2785.7
-1302.12 -1381.25 2774.8
-1081.07 -1347.83 2707.7
-1081.87 -1357.64 2727.4
-1011.17 -1348.23 2708.5
-1021.23 -1371.16 2754.6
-1003.21 -1356.45 2725.0
-987.81 -1345.10 2702.2
-997.85 -1368.48 2749.2
-973.90 -1345.24 2702.5
-949.68 -1340.73 2693.4
-954.48 -1367.61 2747.4
-890.22 -1335.33 2682.6
-907.57 -1372.08 2756.4
-907.73 -1383.21 2778.8
-880.19 -1351.97 2716.0
-874.52 -1354.09 2720.3
-866.35 -1352.35 2716.8
-836.55 -1361.16 2734.5
-843.57 -1384.32 2781.0
-835.03 -1382.12 2776.6
-801.75 -1338.58 2689.1
-785.67 -1334.94 2681.8
-821.93 -1409.02 2830.6
-799.54 -1408.36 2829.3
-768.32 -1365.91 2744.0
-760.42 -1364.49 2741.2
-740.58 -1341.43 2694.8
-738.65 -1363.65 2739.5
-734.95 -1370.01 2752.2
-712.30 -1340.80 2693.6
-704.31 -1338.89 2689.7
-698.15 -1340.45 2692.9
-685.49 -1370.98 2754.2
-692.68 -1399.94 2812.4
-675.74 -1410.24 2833.1
-660.03 -1392.59 2797.6
-640.81 -1367.07 2746.3
-633.18 -1365.96 2744.1
-621.75 -1356.54 2725.2
-605.06 -1335.31 2682.6
-625.17 -1412.14 2836.9
-593.42 -1389.46 2791.3
-570.72 -1352.83 2717.7
-582.90 -1398.96 2810.4
-561.55 -1400.24 2813.0
-559.52 -1413.52 2839.7
-527.79 -1369.40 2751.0
-509.33 -1339.61 2691.2
-530.56 -1414.84 2842.3
-487.99 -1338.48 2688.9
-480.31 -1356.17 2724.5
-470.96 -1349.61 2711.3
-464.54 -1351.40 2714.9
-460.95 -1361.56 2735.3
-446.07 -1338.22 2688.4
-445.91 -1358.95 2730.0
-455.21 -1409.69 2832.0
-413.44 -1368.64 2749.5
-401.45 -1352.27 2716.6
-396.33 -1358.86 2729.8
-384.18 -1341.13 2694.2
-377.30 -1341.52 2695.0
-378.11 -1369.77 2751.8
-356.96 -1398.70 2809.9
-353.64 -1414.56 2841.8
-340.83 -1392.33 2797.1
-290.92 -1362.35 2736.9
-290.72 -1395.48 2803.4
-276.04 -1394.73 2801.9
-261.56 -1357.27 2726.7
-257.62 -1373.96 2760.2
-248.89 -1365.34 2742.9
-227.01 -1362.08 2736.3
-192.01 -1365.38 2742.9
-168.24 -1345.92 2703.9
-84.89 -1358.17 2728.5
-77.74 -1356.92 2726.0
-72.23 -1386.85 2786.1
-65.22 -1391.37 2795.2
-57.18 -1372.28 2756.8
-49.19 -1349.16 2710.4
-42.18 -1349.66 2711.4
-35.95 -1380.44 2773.2
-28.53 -1369.34 2750.9
-21.10 -1350.20 2712.5
7.22 -1386.32 2785.0
14.45 -1386.76 2785.9
21.13 -1352.43 2716.9
28.42 -1363.99 2740.2
35.36 -1357.72 2727.6
93.07 -1374.56 2761.4
100.25 -1374.91 2762.1
105.56 -1351.20 2714.5
179.28 -1376.88 2766.1
186.31 -1375.80 2763.9
206.37 -1366.30 2744.8
246.47 -1391.81 2796.0
265.07 -1375.47 2763.2
276.57 -1397.39 2807.3
277.75 -1367.37 2746.9
286.47 -1375.07 2762.4
289.88 -1357.47 2727.1
330.90 -1381.15 2774.6
350.59 -1432.20 2877.2
353.97 -1415.89 2844.4
352.33 -1380.55 2773.4
373.03 -1432.42 2877.6
392.64 -1422.40 2857.5
394.71 -1403.42 2819.4
401.02 -1399.92 2812.3
399.68 -1370.35 2752.9
405.78 -1366.84 2745.9
419.98 -1390.28 2793.0
430.34 -1400.44 2813.4
435.29 -1392.94 2798.3
443.81 -1396.91 2806.3
451.65 -1398.66 2809.8
452.54 -1357.62 2727.4
479.74 -1417.08 2846.8
487.11 -1417.04 2846.7
562.51 -1367.10 2746.4
595.47 -1394.28 2801.0
621.77 -1438.31 2889.5
613.11 -1401.39 2815.3
609.14 -1359.95 2732.0
634.16 -1399.52 2811.5
637.56 -1391.03 2794.5
641.07 -1382.98 2778.3
669.89 -1383.00 2778.3
686.15 -1401.49 2815.5
724.15 -1390.37 2793.2
741.70 -1369.28 2750.8
881.90 -1387.91 2788.2
912.47 -1424.34 2861.4
902.45 -1397.34 2807.2
891.33 -1369.09 2750.4
909.69 -1386.20 2784.8
940.65 -1422.09 2856.9
924.68 -1387.02 2786.4
1004.29 -1367.55 2747.3
1209.25 -1390.27 2793.0
1214.81 -1388.35 2789.1
-1550.67 -1324.24 2646.5
-1375.20 -1327.07 2652.2
-1370.38 -1329.06 2656.1
-1321.74 -1321.74 2641.5
-1316.03 -1322.88 2643.8
-1126.31 -1325.47 2649.0
-1128.08 -1335.70 2669.4
-1103.81 -1356.91 2711.8
-1080.59 -1336.88 2671.8
-976.94 -1327.81 2653.7
-984.40 -1347.44 2692.9
-993.83 -1370.06 2738.1
-969.92 -1346.72 2691.4
-952.00 -1361.00 2720.0
-942.01 -1356.77 2711.5
-906.73 -1335.87 2669.8
-899.24 -1335.02 2668.1
-899.77 -1346.16 2690.3
-886.53 -1336.72 2671.5
-877.05 -1332.84 2663.7
-881.35 -1350.00 2698.0
-806.69 -1342.17 2682.4
-787.06 -1332.48 2663.0
-786.84 -1368.11 2734.2
