ply
format ascii 1.0
element vertex 2012
property float x
property float y
property float z
end_header
-1672.86 -1243.34 2179.9
-1661.75 -1239.27 2172.7
-1626.91 -1255.86 2201.8
-1603.47 -1242.12 2177.7
-1565.72 -1234.62 2164.6
-1569.12 -1241.75 2177.1
-1566.65 -1244.27 2181.5
-1594.77 -1271.20 2228.7
-1585.86 -1268.69 2224.3
-1576.96 -1266.17 2219.9
-1572.79 -1267.45 2222.1
-1545.62 -1250.13 2191.8
-1544.60 -1253.92 2198.4
-1527.97 -1245.02 2182.8
-1493.36 -1235.11 2165.5
-1488.20 -1235.49 2166.1
-1496.71 -1252.00 2195.1
-1478.77 -1241.72 2177.0
-1460.27 -1235.61 2166.3
-1470.69 -1249.23 2190.2
-1441.65 -1234.10 2163.7
-1469.91 -1263.20 2214.7
-1462.61 -1261.86 2212.3
-1429.37 -1247.87 2187.8
-1402.44 -1229.23 2155.1
-1408.62 -1244.56 2182.0
-1413.58 -1253.98 2198.5
-1383.46 -1232.23 2160.4
-1383.54 -1237.31 2169.3
-1409.66 -1265.82 2219.3
-1394.65 -1257.47 2204.7
-1373.45 -1243.46 2180.1
-1362.89 -1259.81 2208.8
-1366.91 -1268.86 2224.6
-1341.53 -1272.14 2230.4
-1322.67 -1259.69 2208.5
-1328.28 -1270.53 2227.5
-1305.43 -1270.77 2228.0
-1263.77 -1235.69 2166.5
-1224.40 -1224.40 2146.7
-1242.93 -1248.60 2189.1
-1218.97 -1230.15 2156.8
-1223.24 -1240.15 2174.3
-1250.61 -1273.77 2233.2
-1218.47 -1246.81 2186.0
-1197.06 -1266.13 2219.8
-1162.34 -1235.34 2165.9
-1170.77 -1250.33 2192.1
-1174.05 -1259.95 2209.0
-1159.30 -1250.23 2192.0
-1164.58 -1262.11 2212.8
-1134.04 -1241.23 2176.2
-1128.08 -1253.42 2197.6
-1124.61 -1262.32 2213.2
-1084.17 -1255.36 2201.0
-1056.18 -1235.95 2166.9
-1068.26 -1263.54 2215.3
-1026.07 -1220.19 2139.3
-1035.50 -1238.10 2170.7
-1013.54 -1218.47 2136.3
-1041.04 -1265.36 2218.5
-1025.45 -1267.41 2222.1
-1022.33 -1270.70 2227.8
-1012.92 -1266.15 2219.9
-995.48 -1251.45 2194.1
-982.88 -1242.73 2178.8
-974.35 -1239.06 2172.4
-968.73 -1239.08 2172.4
-957.00 -1231.23 2158.7
-972.15 -1258.07 2205.7
-954.21 -1264.61 2217.2
-886.80 -1219.35 2137.8
-889.98 -1231.41 2159.0
-901.10 -1254.70 2199.8
-882.24 -1252.21 2195.4
-846.09 -1232.71 2161.2
-838.18 -1229.33 2155.3
-837.61 -1236.74 2168.3
-841.00 -1258.64 2206.7
-817.32 -1240.07 2174.1
-824.56 -1259.74 2208.6
-823.66 -1267.17 2221.7
-773.43 -1224.13 2146.2
-766.52 -1230.91 2158.1
-769.08 -1253.32 2197.4
-755.77 -1240.82 2175.5
-756.24 -1260.40 2209.8
-746.45 -1253.57 2197.8
-733.61 -1241.50 2176.7
-719.90 -1247.07 2186.4
-710.56 -1240.67 2175.2
-627.14 -1210.27 2121.9
-623.45 -1213.80 2128.1
-638.32 -1253.84 2198.3
-627.38 -1243.46 2180.1
-623.50 -1247.00 2186.3
-603.46 -1252.47 2195.9
-597.15 -1251.18 2193.6
-589.71 -1247.47 2187.1
-551.67 -1213.67 2127.9
-541.43 -1227.99 2153.0
-544.13 -1246.96 2186.2
-534.53 -1237.85 2170.3
-518.79 -1214.18 2128.8
-516.17 -1221.04 2140.8
-515.92 -1233.72 2163.0
-478.97 -1225.26 2148.2
-471.53 -1220.42 2139.7
-464.87 -1217.52 2134.6
-455.44 -1221.92 2142.3
-434.05 -1208.73 2119.2
-435.29 -1227.74 2152.5
-413.34 -1245.68 2184.0
-401.58 -1227.05 2151.3
-400.88 -1242.16 2177.8
-401.44 -1261.68 2212.0
-390.93 -1246.45 2185.3
-389.48 -1260.09 2209.3
-318.94 -1252.97 2196.8
-266.09 -1245.53 2183.7
-258.02 -1233.99 2163.5
-238.80 -1250.87 2193.1
-225.73 -1241.51 2176.7
-222.14 -1253.11 2197.0
-180.49 -1240.85 2175.5
-172.65 -1225.23 2148.1
-163.80 -1201.20 2106.0
-149.73 -1220.01 2139.0
-143.79 -1216.71 2133.2
-141.04 -1241.11 2176.0
-94.68 -1225.33 2148.3
-79.03 -1241.96 2177.5
-71.43 -1208.87 2119.4
-66.97 -1227.76 2152.6
-39.36 -1236.97 2168.7
-33.40 -1224.63 2147.1
5.59 -1230.19 2156.8
11.31 -1243.56 2180.3
17.11 -1254.44 2199.3
21.81 -1199.43 2102.9
33.82 -1239.99 2174.0
38.63 -1214.19 2128.8
50.78 -1241.33 2176.4
56.94 -1252.66 2196.2
59.73 -1194.65 2094.5
82.24 -1206.22 2114.8
89.59 -1231.87 2159.8
99.52 -1216.31 2132.5
113.61 -1249.73 2191.1
123.91 -1239.08 2172.4
127.51 -1219.64 2138.3
133.90 -1227.41 2152.0
137.16 -1206.98 2116.1
141.75 -1199.40 2102.8
151.61 -1235.34 2165.9
157.83 -1240.12 2174.2
163.51 -1240.43 2174.8
195.03 -1225.89 2149.3
204.61 -1250.37 2192.2
209.75 -1247.17 2186.6
206.94 -1198.07 2100.5
220.17 -1210.92 2123.0
222.13 -1191.93 2089.7
228.07 -1194.64 2094.5
237.98 -1217.56 2134.7
241.49 -1207.43 2116.9
248.23 -1213.57 2127.7
254.62 -1217.73 2135.0
270.59 -1214.89 2130.0
276.94 -1218.53 2136.4
277.61 -1197.55 2099.6
283.91 -1201.18 2106.0
294.39 -1222.01 2142.5
299.51 -1220.21 2139.3
305.34 -1221.35 2141.3
317.31 -1246.58 2185.6
323.78 -1249.67 2191.0
331.66 -1196.17 2097.2
366.81 -1222.71 2143.7
372.10 -1221.81 2142.1
371.77 -1202.79 2108.8
380.80 -1214.13 2128.7
395.66 -1208.95 2119.6
405.55 -1222.21 2142.8
412.31 -1193.51 2092.5
420.65 -1201.85 2107.1
426.12 -1201.88 2107.2
445.96 -1241.90 2177.4
465.61 -1249.20 2190.2
473.42 -1239.91 2173.9
461.00 -1193.17 2091.9
478.37 -1209.67 2120.9
480.94 -1202.35 2108.0
483.44 -1195.03 2095.2
491.44 -1201.31 2106.2
516.10 -1207.88 2117.7
525.11 -1216.05 2132.0
538.42 -1233.89 2163.3
553.59 -1230.21 2156.9
549.25 -1208.35 2118.5
550.26 -1198.59 2101.4
556.99 -1189.69 2085.8
583.33 -1233.96 2163.4
587.72 -1231.41 2159.0
585.39 -1192.46 2090.7
608.22 -1205.48 2113.5
603.35 -1185.15 2077.9
642.32 -1228.79 2154.4
656.91 -1245.85 2184.3
665.52 -1230.38 2157.2
651.69 -1194.76 2094.7
668.31 -1215.12 2130.4
684.05 -1233.53 2162.7
678.05 -1212.77 2126.3
696.07 -1234.97 2165.2
708.92 -1237.81 2170.2
718.25 -1244.22 2181.4
721.54 -1240.14 2174.3
719.20 -1226.55 2150.4
710.01 -1201.56 2106.6
732.23 -1211.21 2123.6
737.57 -1210.94 2123.1
730.66 -1181.94 2072.2
757.08 -1215.76 2131.5
774.89 -1235.33 2165.8
811.29 -1239.48 2173.1
781.00 -1184.96 2077.5
800.46 -1197.96 2100.3
810.33 -1188.49 2083.7
810.67 -1181.11 2070.8
854.48 -1228.66 2154.2
840.90 -1185.89 2079.2
851.70 -1193.46 2092.4
866.57 -1206.62 2115.5
880.11 -1202.63 2108.5
893.50 -1213.40 2127.4
915.34 -1213.10 2126.9
926.25 -1205.77 2114.0
993.39 -1241.74 2177.1
969.38 -1204.88 2112.5
997.54 -1232.92 2161.6
1018.40 -1237.83 2170.2
985.29 -1191.01 2088.1
1027.08 -1228.03 2153.0
1049.87 -1209.28 2120.2
1040.22 -1191.91 2089.7
1063.11 -1211.84 2124.6
1054.93 -1196.31 2097.4
1042.60 -1176.27 2062.3
1049.10 -1177.56 2064.5
1071.82 -1196.96 2098.6
1101.61 -1224.01 2146.0
1108.70 -1225.70 2148.9
1095.01 -1180.90 2070.4
1116.06 -1191.91 2089.7
1126.83 -1186.13 2079.6
1153.89 -1208.84 2119.4
1182.24 -1226.85 2151.0
1186.77 -1225.78 2149.1
1175.67 -1208.63 2119.0
1170.10 -1197.31 2099.2
1195.06 -1217.19 2134.0
1209.63 -1226.35 2150.1
1227.34 -1238.60 2171.6
1217.74 -1217.74 2135.0
1182.53 -1177.18 2063.9
1187.26 -1176.56 2062.8
1197.36 -1181.26 2071.0
1211.10 -1189.48 2085.4
1263.60 -1203.43 2109.9
1244.28 -1179.92 2068.7
1310.19 -1226.57 2150.5
1263.86 -1178.17 2065.6
1275.56 -1184.07 2076.0
1301.48 -1203.04 2109.2
1303.35 -1199.73 2103.4
1304.72 -1195.99 2096.9
1285.07 -1173.09 2056.7
1322.90 -1192.78 2091.2
1353.62 -1215.50 2131.1
1327.32 -1187.04 2081.2
1340.68 -1194.13 2093.6
1387.24 -1230.62 2157.6
1360.20 -1201.78 2107.0
1347.67 -1185.95 2079.3
1390.63 -1218.88 2137.0
1399.76 -1222.01 2142.5
1384.15 -1203.61 2110.2
1361.46 -1179.22 2067.5
1352.05 -1166.48 2045.1
1412.69 -1204.62 2112.0
1443.48 -1226.12 2149.7
1389.53 -1175.75 2061.4
1426.89 -1193.60 2092.7
1440.10 -1200.09 2104.0
1409.79 -1170.39 2052.0
1445.96 -1191.43 2088.9
1465.95 -1203.39 2109.8
1475.65 -1206.85 2115.9
1509.79 -1230.20 2156.8
1486.78 -1206.98 2116.1
1492.86 -1207.46 2117.0
1541.63 -1233.31 2162.3
1550.24 -1231.24 2158.7
1538.35 -1217.40 2134.4
1475.81 -1163.72 2040.3
1486.05 -1163.45 2039.8
1545.57 -1205.77 2114.0
1566.13 -1217.49 2134.6
1515.11 -1173.67 2057.7
1523.75 -1176.23 2062.2
1599.55 -1230.42 2157.2
1578.52 -1210.02 2121.5
1538.32 -1175.11 2060.2
1557.35 -1185.52 2078.5
1581.91 -1200.07 2104.0
1614.23 -1220.38 2139.6
1618.65 -1219.53 2138.1
1559.73 -1171.13 2053.3
1624.12 -1211.21 2123.5
1588.93 -1176.98 2063.5
1604.67 -1180.70 2070.1
1631.31 -1196.30 2097.4
1626.06 -1188.48 2083.7
-1653.28 -1234.37 2154.4
-1675.94 -1255.54 2191.3
-1599.91 -1236.29 2157.7
-1631.03 -1264.76 2207.4
-1623.73 -1263.54 2205.3
-1586.37 -1238.83 2162.1
-1585.05 -1242.19 2168.0
-1570.89 -1235.47 2156.3
-1563.94 -1238.82 2162.1
-1586.42 -1261.15 2201.1
-1599.77 -1276.35 2227.6
-1576.73 -1271.75 2219.6
-1552.15 -1256.50 2193.0
-1522.96 -1237.41 2159.7
-1523.05 -1242.04 2167.8
-1507.52 -1233.93 2153.6
-1469.42 -1239.47 2163.3
-1464.24 -1239.84 2163.9
-1479.49 -1272.24 2220.5
-1466.35 -1270.84 2218.0
-1438.03 -1261.13 2201.1
-1409.12 -1240.70 2165.4
-1386.90 -1230.94 2148.4
-1407.50 -1254.26 2189.1
-1394.42 -1247.64 2177.5
-1353.09 -1230.58 2147.8
-1370.31 -1251.40 2184.1
-1377.37 -1263.07 2204.5
-1366.90 -1269.26 2215.3
-1334.67 -1244.57 2172.2
-1361.23 -1274.71 2224.8
-1306.89 -1255.75 2191.7
-1297.82 -1252.48 2186.0
-1263.55 -1241.09 2166.1
-1257.28 -1240.44 2165.0
-1252.79 -1241.56 2166.9
-1231.32 -1225.77 2139.4
-1234.44 -1234.44 2154.5
-1221.09 -1226.64 2140.9
-1213.36 -1235.73 2156.7
-1225.45 -1253.81 2188.3
-1197.52 -1248.36 2178.8
-1190.43 -1252.78 2186.5
-1183.15 -1269.30 2215.3
-1165.43 -1256.39 2192.8
-1131.96 -1226.29 2140.3
-1144.69 -1252.36 2185.8
-1133.81 -1246.63 2175.8
-1107.50 -1236.15 2157.5
-1103.39 -1244.12 2171.4
-1101.48 -1248.34 2178.7
-1080.87 -1244.13 2171.4
-1053.28 -1225.13 2138.2
-1043.82 -1233.60 2153.0
-1044.47 -1241.02 2166.0
-1047.76 -1251.65 2184.5
-1028.01 -1234.73 2155.0
-984.65 -1257.85 2195.3
-962.98 -1251.88 2184.9
-938.49 -1227.26 2142.0
-936.11 -1231.43 2149.2
-927.36 -1227.22 2141.9
-915.14 -1218.35 2126.4
-909.60 -1225.74 2139.3
-896.42 -1238.18 2161.0
-885.73 -1231.11 2148.7
-898.87 -1257.28 2194.3
-848.14 -1217.13 2124.3
-846.79 -1223.15 2134.8
-862.87 -1254.57 2189.6
-834.81 -1255.06 2190.5
-813.39 -1239.72 2163.7
-816.95 -1253.78 2188.2
-814.26 -1258.40 2196.3
-812.74 -1264.90 2207.6
-791.52 -1240.61 2165.3
-777.70 -1227.66 2142.7
-715.12 -1225.13 2138.2
-723.56 -1249.27 2180.4
-714.19 -1252.67 2186.3
-698.92 -1235.70 2156.7
-648.91 -1247.04 2176.5
-645.36 -1251.09 2183.5
-589.31 -1252.29 2185.6
-586.42 -1258.24 2196.0
-552.85 -1246.73 2175.9
-535.10 -1219.14 2127.8
-510.91 -1214.09 2119.0
-513.34 -1233.13 2152.2
-477.12 -1226.09 2139.9
-475.15 -1235.39 2156.1
-476.07 -1252.51 2186.0
-469.12 -1249.11 2180.1
-458.94 -1236.90 2158.8
-456.93 -1246.69 2175.9
-447.05 -1250.60 2182.7
-437.24 -1238.84 2162.2
-431.91 -1255.95 2192.0
-402.36 -1218.09 2125.9
-398.58 -1223.43 2135.3
-405.96 -1263.63 2205.4
-394.19 -1262.54 2203.5
-383.77 -1247.24 2176.8
-373.63 -1232.42 2151.0
-373.46 -1250.53 2182.6
-365.03 -1241.09 2166.1
-357.82 -1235.58 2156.5
-352.10 -1255.07 2190.5
-346.39 -1254.96 2190.3
-322.79 -1251.50 2184.3
-301.44 -1211.25 2114.0
-306.41 -1254.02 2188.7
-301.88 -1258.80 2197.0
-294.06 -1249.75 2181.2
-283.12 -1226.85 2141.2
-268.98 -1213.14 2117.3
-269.88 -1242.59 2168.7
-258.23 -1214.21 2119.2
-246.34 -1237.31 2159.5
-239.83 -1232.63 2151.3
-233.55 -1228.93 2144.9
-208.44 -1245.01 2172.9
-179.07 -1236.67 2158.4
-169.11 -1205.62 2104.2
-169.68 -1249.96 2181.6
-147.55 -1254.14 2188.9
-142.17 -1256.78 2193.5
-77.43 -1222.36 2133.4
-70.68 -1201.58 2097.1
-67.87 -1249.86 2181.4
-39.24 -1238.72 2162.0
-27.93 -1234.33 2154.3
-11.33 -1252.29 2185.6
-5.68 -1254.29 2189.1
0.00 -1251.80 2184.8
5.58 -1232.41 2150.9
11.09 -1225.94 2139.7
16.49 -1214.99 2120.5
21.95 -1212.48 2116.2
44.82 -1238.18 2161.0
60.70 -1219.61 2128.6
99.85 -1225.94 2139.7
107.48 -1250.17 2181.9
112.23 -1240.11 2164.4
114.00 -1199.76 2094.0
128.35 -1233.25 2152.4
133.75 -1231.62 2149.6
135.88 -1201.19 2096.4
185.74 -1243.91 2171.0
200.81 -1199.43 2093.4
207.90 -1209.11 2110.3
235.90 -1241.30 2166.5
236.85 -1217.29 2124.6
238.17 -1196.24 2087.8
252.28 -1212.02 2115.4
265.69 -1198.31 2091.4
282.89 -1250.38 2182.3
291.73 -1239.87 2164.0
292.65 -1220.29 2129.8
299.30 -1224.90 2137.8
306.84 -1232.96 2151.9
312.34 -1232.62 2151.3
312.48 -1211.56 2114.6
317.75 -1210.72 2113.1
330.37 -1237.47 2159.8
336.40 -1239.08 2162.6
330.35 -1196.84 2088.9
336.63 -1199.92 2094.2
353.04 -1238.44 2161.5
355.39 -1227.22 2141.9
363.73 -1236.67 2158.4
374.22 -1234.38 2154.4
368.34 -1197.11 2089.3
372.10 -1191.80 2080.1
381.87 -1205.63 2104.2
395.87 -1232.21 2150.6
429.58 -1232.95 2151.9
425.31 -1205.06 2103.2
434.98 -1216.83 2123.8
448.46 -1238.86 2162.2
451.19 -1231.04 2148.5
470.45 -1223.18 2134.8
464.39 -1193.39 2082.8
474.59 -1205.57 2104.1
509.88 -1211.65 2114.7
527.75 -1240.77 2165.5
533.00 -1227.00 2141.5
530.62 -1208.94 2110.0
535.41 -1207.40 2107.3
531.70 -1186.93 2071.6
539.67 -1192.67 2081.6
553.22 -1210.51 2112.7
556.41 -1205.56 2104.1
574.23 -1232.09 2150.4
587.95 -1249.39 2180.6
581.58 -1224.09 2136.4
583.81 -1217.18 2124.4
589.72 -1218.01 2125.8
592.32 -1212.07 2115.4
613.69 -1244.28 2171.7
617.27 -1228.99 2145.0
601.25 -1186.39 2070.6
625.41 -1191.52 2079.6
643.18 -1214.90 2120.4
660.12 -1236.33 2157.8
651.64 -1210.19 2112.2
657.38 -1200.66 2095.5
675.13 -1222.99 2134.5
673.08 -1209.35 2110.7
683.53 -1218.22 2126.2
691.89 -1223.26 2135.0
691.01 -1212.01 2115.3
703.50 -1224.20 2136.6
716.09 -1236.37 2157.9
727.31 -1226.98 2141.5
712.48 -1192.87 2081.9
728.04 -1209.76 2111.4
752.69 -1241.38 2166.6
759.00 -1242.50 2168.6
749.22 -1217.48 2124.9
752.48 -1213.86 2118.6
775.88 -1242.53 2168.6
785.78 -1231.60 2149.5
801.61 -1221.76 2132.4
815.61 -1217.90 2125.6
814.21 -1207.65 2107.7
811.12 -1195.05 2085.7
846.52 -1238.95 2162.4
856.08 -1244.69 2172.4
860.95 -1227.55 2142.5
847.69 -1200.89 2095.9
878.10 -1228.23 2143.7
888.42 -1234.85 2155.2
888.17 -1211.64 2114.7
899.93 -1190.92 2078.5
940.27 -1229.58 2146.0
990.96 -1244.33 2171.7
990.64 -1236.91 2158.8
972.42 -1207.33 2107.2
961.44 -1187.03 2071.7
987.45 -1212.37 2116.0
1014.40 -1238.58 2161.7
1004.81 -1220.12 2129.5
1006.87 -1215.94 2122.2
1016.92 -1221.41 2131.7
1022.02 -1220.89 2130.8
1038.82 -1221.16 2131.3
1060.72 -1240.31 2164.7
1069.00 -1243.42 2170.2
1028.35 -1189.88 2076.7
1027.86 -1176.98 2054.2
1044.74 -1190.14 2077.2
1058.90 -1200.08 2094.5
1106.14 -1222.29 2133.3
1099.61 -1209.03 2110.1
1159.94 -1232.44 2151.0
1137.60 -1191.51 2079.6
1135.97 -1184.19 2066.8
1154.58 -1197.95 2090.8
1175.04 -1213.47 2117.9
1199.08 -1232.54 2151.2
1211.29 -1211.29 2114.1
1232.21 -1226.66 2140.9
1236.58 -1220.01 2129.3
1279.96 -1235.25 2155.9
1278.86 -1228.82 2144.7
1247.73 -1193.72 2083.4
1304.23 -1231.77 2149.8
1294.56 -1217.44 2124.8
1279.64 -1198.31 2091.4
1323.38 -1234.04 2153.8
1330.55 -1235.51 2156.4
1315.00 -1215.97 2122.2
1308.34 -1204.76 2102.7
1283.01 -1176.53 2053.4
1297.16 -1184.59 2067.5
1332.46 -1211.83 2115.0
1345.34 -1218.52 2126.7
1350.05 -1217.80 2125.4
1349.43 -1212.29 2115.8
1384.71 -1238.95 2162.4
1348.78 -1197.11 2089.3
1335.25 -1180.36 2060.1
1378.15 -1213.43 2117.8
1373.71 -1195.24 2086.1
1372.36 -1184.73 2067.7
1419.63 -1211.34 2114.2
1411.60 -1199.86 2094.1
1410.57 -1194.39 2084.6
1444.03 -1218.06 2125.9
1437.71 -1194.49 2084.8
1413.88 -1170.29 2042.5
1479.72 -1220.22 2129.7
1478.80 -1205.96 2104.8
1441.02 -1170.83 2043.5
1465.28 -1186.18 2070.3
1502.75 -1212.07 2115.4
1507.73 -1190.03 2077.0
1526.54 -1200.59 2095.4
1519.29 -1182.26 2063.4
1544.72 -1185.36 2068.8
1534.32 -1173.31 2047.8
1554.44 -1184.59 2067.5
1578.46 -1198.76 2092.2
1598.17 -1209.58 2111.1
1555.76 -1173.46 2048.1
1622.86 -1215.77 2121.9
1637.70 -1218.62 2126.9
1591.74 -1168.69 2039.7
-1621.89 -1245.88 2164.7
-1640.75 -1264.75 2197.4
-1628.11 -1268.21 2203.5
-1636.43 -1279.18 2222.5
-1558.18 -1235.41 2146.5
-1564.28 -1244.69 2162.6
-1575.08 -1257.80 2185.4
-1565.18 -1254.41 2179.5
-1560.05 -1254.82 2180.2
-1561.22 -1260.33 2189.8
-1550.29 -1256.07 2182.4
-1550.89 -1261.16 2191.2
-1544.67 -1260.72 2190.4
-1538.45 -1260.28 2189.7
-1517.70 -1247.89 2168.1
-1456.44 -1238.82 2152.4
-1476.00 -1260.27 2189.7
-1445.10 -1238.66 2152.1
-1488.57 -1280.86 2225.4
-1459.96 -1266.06 2199.7
-1442.75 -1256.04 2182.3
-1409.15 -1256.35 2182.9
-1388.77 -1243.18 2160.0
-1383.52 -1243.49 2160.5
-1361.32 -1259.22 2187.8
-1369.95 -1277.86 2220.2
-1318.47 -1235.02 2145.8
-1329.12 -1250.27 2172.3
-1321.91 -1248.79 2169.7
-1331.47 -1263.19 2194.7
-1327.94 -1265.24 2198.3
-1289.71 -1234.12 2144.2
-1256.02 -1233.79 2143.7
-1262.45 -1251.18 2173.9
-1279.90 -1274.16 2213.8
-1267.58 -1273.32 2212.3
-1239.04 -1250.31 2172.4
-1215.97 -1232.63 2141.6
-1217.65 -1239.99 2154.4
-1228.92 -1257.23 2184.4
-1228.27 -1262.39 2193.3
-1209.74 -1249.13 2170.3
-1191.74 -1236.29 2148.0
-1190.23 -1240.52 2155.3
-1216.21 -1273.58 2212.8
-1203.39 -1266.13 2199.8
-1181.71 -1267.35 2202.0
-1171.13 -1262.10 2192.8
-1149.15 -1256.70 2183.5
-1145.28 -1258.68 2186.9
-1128.23 -1246.10 2165.0
-1101.65 -1254.18 2179.1
-1072.32 -1239.88 2154.2
-1063.67 -1236.30 2148.0
-1080.25 -1275.61 2216.3
-1069.94 -1270.20 2206.9
-1048.11 -1250.97 2173.5
-1022.96 -1227.55 2132.8
-1024.66 -1249.86 2171.6
-1030.38 -1263.78 2195.8
-1006.41 -1248.17 2168.6
-997.08 -1250.57 2172.8
-967.39 -1241.39 2156.9
-952.07 -1228.84 2135.0
-938.39 -1247.45 2167.4
-911.49 -1226.37 2130.8
-867.56 -1250.64 2172.9
-865.13 -1255.28 2181.0
-845.12 -1250.78 2173.2
-806.27 -1242.99 2159.6
-788.04 -1223.39 2125.6
-776.03 -1239.42 2153.4
-772.60 -1251.96 2175.2
-760.85 -1260.52 2190.1
-756.22 -1262.26 2193.1
-718.08 -1226.26 2130.6
-723.92 -1255.54 2181.4
-709.64 -1250.31 2172.4
-692.25 -1229.44 2136.1
-679.26 -1246.24 2165.3
-655.08 -1232.43 2141.3
-664.89 -1261.58 2191.9
-623.39 -1258.11 2185.9
-621.61 -1266.03 2199.7
-605.38 -1244.39 2162.1
-611.07 -1267.82 2202.8
-600.02 -1268.62 2204.2
-573.92 -1249.11 2170.3
-559.14 -1266.62 2200.7
-546.88 -1251.62 2174.6
-540.86 -1250.74 2173.1
-510.97 -1219.74 2119.2
-513.19 -1238.36 2151.6
-518.66 -1265.30 2198.4
-497.95 -1256.18 2182.6
-482.33 -1259.73 2188.7
-468.13 -1237.21 2149.6
-472.47 -1263.70 2195.6
-457.69 -1254.41 2179.5
-447.62 -1242.14 2158.2
-410.06 -1230.19 2137.4
-402.56 -1224.24 2127.1
-392.13 -1226.09 2130.3
-390.93 -1239.82 2154.1
-382.72 -1231.37 2139.5
-375.19 -1224.89 2128.2
-359.55 -1209.41 2101.3
-359.57 -1228.07 2133.7
-362.12 -1256.11 2182.4
-338.81 -1233.06 2142.4
-329.74 -1240.72 2155.7
-313.54 -1221.14 2121.7
-307.98 -1243.11 2159.8
-300.84 -1260.13 2189.4
-245.97 -1213.46 2108.3
-249.22 -1257.41 2184.7
-214.14 -1251.01 2173.6
-201.00 -1206.01 2095.4
-197.78 -1219.65 2119.1
-194.83 -1235.78 2147.1
-192.04 -1253.90 2178.6
-173.03 -1239.09 2152.9
-169.49 -1254.21 2179.1
-124.57 -1257.02 2184.0
-89.61 -1243.29 2160.1
-84.72 -1253.85 2178.5
-78.42 -1243.47 2160.5
-70.63 -1206.16 2095.6
-67.03 -1240.15 2154.7
-55.78 -1238.29 2151.5
-39.14 -1241.44 2156.9
-32.95 -1219.04 2118.0
-28.30 -1256.48 2183.1
-11.28 -1252.56 2176.3
-5.48 -1216.65 2113.9
5.57 -1235.61 2146.8
56.23 -1248.26 2168.8
60.32 -1217.28 2115.0
64.99 -1202.25 2088.9
70.66 -1206.66 2096.5
79.14 -1254.94 2180.4
84.59 -1251.86 2175.0
86.41 -1198.92 2083.1
99.74 -1230.11 2137.3
114.63 -1211.81 2105.5
119.14 -1202.22 2088.8
144.81 -1236.49 2148.3
173.13 -1201.08 2086.8
183.32 -1233.22 2142.7
195.93 -1208.22 2099.2
213.03 -1244.55 2162.3
216.94 -1234.87 2145.5
219.95 -1220.71 2120.9
241.59 -1247.26 2167.1
238.89 -1205.29 2094.1
242.25 -1195.10 2076.4
250.25 -1207.73 2098.4
279.45 -1240.77 2155.8
309.70 -1250.04 2171.9
303.75 -1204.16 2092.2
311.50 -1213.23 2107.9
323.60 -1238.60 2152.0
328.95 -1237.75 2150.5
325.48 -1204.26 2092.3
342.06 -1224.78 2128.0
367.18 -1235.07 2145.9
377.98 -1252.42 2176.0
382.72 -1231.37 2139.5
384.10 -1218.14 2116.5
398.43 -1245.79 2164.5
434.35 -1236.22 2147.9
438.35 -1231.82 2140.2
446.73 -1239.68 2153.9
447.30 -1225.94 2130.0
461.89 -1250.48 2172.6
473.51 -1251.42 2174.3
472.01 -1232.78 2141.9
481.73 -1243.53 2160.6
474.08 -1209.72 2101.8
509.75 -1230.05 2137.2
517.93 -1236.34 2148.1
520.57 -1229.44 2136.1
539.17 -1246.84 2166.3
536.44 -1227.74 2133.1
542.79 -1229.60 2136.4
536.13 -1202.23 2088.8
542.16 -1203.60 2091.2
541.12 -1189.40 2066.5
554.23 -1194.56 2075.5
572.76 -1222.62 2124.2
599.95 -1233.24 2142.7
624.13 -1248.25 2168.8
601.35 -1191.96 2071.0
617.46 -1191.97 2071.0
647.71 -1239.59 2153.7
645.82 -1225.40 2129.1
640.21 -1204.47 2092.7
653.28 -1218.73 2117.5
663.87 -1228.16 2133.9
662.46 -1215.43 2111.8
659.63 -1200.30 2085.5
680.63 -1228.46 2134.4
701.72 -1246.25 2165.3
677.77 -1194.16 2074.8
700.58 -1224.63 2127.7
735.30 -1200.27 2085.4
737.30 -1194.75 2075.8
756.72 -1217.34 2115.1
779.61 -1245.13 2163.4
775.71 -1230.06 2137.2
799.05 -1240.49 2155.3
817.01 -1242.30 2158.4
808.25 -1220.63 2120.8
827.09 -1240.64 2155.5
815.61 -1215.20 2111.4
805.20 -1191.69 2070.5
821.26 -1207.41 2097.8
812.55 -1186.76 2061.9
835.84 -1204.92 2093.5
846.18 -1204.18 2092.2
880.81 -1229.81 2136.7
872.52 -1210.63 2103.4
863.06 -1190.06 2067.7
887.29 -1215.92 2112.6
919.07 -1244.11 2161.6
884.72 -1190.35 2068.2
907.60 -1213.78 2108.9
932.77 -1239.97 2154.4
919.22 -1200.40 2085.6
936.13 -1215.33 2111.6
995.99 -1242.20 2158.3
978.80 -1213.93 2109.1
1000.37 -1233.79 2143.7
1009.29 -1237.91 2150.8
981.13 -1196.77 2079.3
977.76 -1186.13 2060.9
982.71 -1185.66 2060.0
1007.22 -1208.67 2100.0
1048.37 -1231.42 2139.5
1029.12 -1202.44 2089.2
1020.04 -1179.42 2049.2
1035.65 -1191.26 2069.8
1049.35 -1200.80 2086.3
1045.86 -1190.68 2068.7
1083.81 -1227.58 2132.9
1090.36 -1210.30 2102.8
1086.18 -1193.72 2074.0
1105.11 -1179.49 2049.3
1143.41 -1203.02 2090.2
1142.24 -1196.12 2078.2
1177.71 -1227.47 2132.7
1183.64 -1222.18 2123.5
1151.85 -1183.85 2056.9
1168.88 -1195.81 2077.7
1193.90 -1215.80 2112.4
1235.56 -1241.15 2156.4
1258.74 -1236.46 2148.3
1232.72 -1205.56 2094.6
1214.68 -1182.71 2054.9
1233.53 -1195.83 2077.7
1256.61 -1212.90 2107.4
1286.25 -1236.14 2147.7
1295.26 -1239.43 2153.4
1243.98 -1185.25 2059.3
1265.41 -1195.41 2077.0
1289.30 -1212.81 2107.2
1287.44 -1205.96 2095.3
1282.05 -1185.90 2060.4
1324.12 -1209.69 2101.8
1369.15 -1240.62 2155.5
1362.79 -1229.83 2136.8
1358.29 -1220.81 2121.1
1335.23 -1195.25 2076.7
1338.84 -1193.67 2073.9
1382.60 -1227.75 2133.2
1374.03 -1215.28 2111.5
1369.31 -1206.29 2095.9
1385.44 -1210.90 2103.9
1394.64 -1209.42 2101.3
1433.74 -1238.48 2151.8
1400.30 -1204.91 2093.5
1367.64 -1172.26 2036.7
1402.82 -1193.20 2073.1
1451.91 -1211.75 2105.4
1472.39 -1224.24 2127.1
1484.88 -1216.39 2113.4
1477.92 -1206.24 2095.8
1497.55 -1217.79 2115.9
1509.47 -1179.94 2050.1
1539.17 -1194.74 2075.8
1581.45 -1223.28 2125.4
1541.87 -1188.53 2065.0
1523.86 -1170.58 2033.8
1542.85 -1181.08 2052.1
1579.96 -1205.33 2094.2
1606.80 -1221.61 2122.5
1606.24 -1217.01 2114.5
1621.08 -1224.08 2126.8
1628.78 -1225.73 2129.6
1627.63 -1220.72 2120.9
1640.68 -1218.17 2116.5
1612.60 -1193.32 2073.3
-1706.35 -1243.52 2150.9
-1717.24 -1255.56 2171.7
-1705.51 -1251.08 2164.0
-1678.98 -1252.22 2165.9
-1697.90 -1270.57 2197.7
-1655.13 -1242.74 2149.5
-1637.88 -1250.84 2163.5
-1625.20 -1245.43 2154.2
-1619.91 -1254.31 2169.5
-1605.80 -1256.47 2173.3
-1626.52 -1277.16 2209.1
-1574.19 -1240.44 2145.5
-1541.21 -1240.76 2146.1
-1534.04 -1239.46 2143.8
-1532.64 -1242.83 2149.7
-1513.70 -1241.01 2146.5
-1555.89 -1280.31 2214.5
-1542.37 -1273.88 2203.4
-1502.00 -1245.16 2153.7
-1467.70 -1258.84 2177.4
-1457.46 -1254.88 2170.5
-1467.78 -1268.66 2194.4
-1442.02 -1251.25 2164.2
-1423.65 -1244.99 2153.4
-1439.74 -1264.02 2186.3
-1444.34 -1273.08 2202.0
-1424.00 -1270.21 2197.0
-1334.94 -1245.57 2154.4
-1331.54 -1247.61 2158.0
-1315.44 -1237.73 2140.9
-1289.23 -1233.90 2134.2
-1261.58 -1239.35 2143.7
-1273.82 -1273.82 2203.3
-1262.28 -1279.49 2213.1
-1227.66 -1250.09 2162.2
-1216.99 -1244.90 2153.3
-1216.42 -1250.05 2162.2
-1212.32 -1251.61 2164.9
-1189.52 -1233.78 2134.0
-1210.13 -1261.03 2181.1
-1180.03 -1247.14 2157.1
-1167.14 -1257.35 2174.8
-1181.80 -1279.33 2212.8
-1156.19 -1276.39 2207.7
-1124.71 -1247.81 2158.3
-1111.31 -1245.34 2154.0
-1100.11 -1251.65 2164.9
-1075.35 -1229.76 2127.1
-1090.68 -1253.72 2168.5
-1097.08 -1267.61 2192.5
-1063.40 -1235.09 2136.3
-1076.84 -1257.26 2174.6
-1038.35 -1238.25 2141.7
-1020.35 -1271.16 2198.7
-981.69 -1243.85 2151.4
-982.37 -1266.29 2190.3
-961.95 -1247.17 2157.2
-915.79 -1230.24 2127.9
-893.99 -1223.07 2115.5
-892.91 -1229.12 2126.0
-892.36 -1267.50 2192.3
-874.08 -1249.49 2161.2
-851.34 -1224.84 2118.6
-868.98 -1258.33 2176.5
-847.71 -1251.92 2165.4
-825.76 -1227.63 2123.4
-843.01 -1261.69 2182.3
-807.45 -1268.03 2193.3
-780.56 -1234.50 2135.3
-786.01 -1252.00 2165.5
-757.41 -1232.87 2132.4
-752.36 -1233.64 2133.8
-753.38 -1244.47 2152.5
-739.42 -1239.78 2144.4
-739.91 -1259.54 2178.6
-711.74 -1220.91 2111.8
-721.23 -1256.53 2173.4
-710.53 -1257.53 2175.1
-696.66 -1242.85 2149.7
-700.34 -1259.48 2178.5
-680.19 -1233.19 2133.0
-683.50 -1249.35 2160.9
-668.85 -1232.67 2132.1
-653.11 -1234.27 2134.9
-645.49 -1262.67 2184.0
-629.11 -1241.52 2147.4
-611.70 -1240.09 2144.9
-589.89 -1218.02 2106.8
-583.79 -1239.85 2144.5
-573.74 -1230.24 2127.9
-578.88 -1265.60 2189.1
-553.37 -1221.80 2113.3
-561.29 -1251.69 2165.0
-552.31 -1256.79 2173.8
-543.74 -1250.04 2162.1
-539.49 -1266.37 2190.4
-523.93 -1242.95 2149.9
-527.99 -1266.05 2189.8
-516.48 -1251.91 2165.4
-508.09 -1245.11 2153.6
-499.15 -1264.90 2187.8
-486.70 -1262.03 2182.9
-471.22 -1266.05 2189.8
-394.68 -1222.42 2114.4
-395.00 -1240.65 2145.9
-391.59 -1247.50 2157.8
-381.23 -1232.10 2131.1
-384.74 -1261.71 2182.3
-368.83 -1246.20 2155.5
-358.45 -1229.77 2127.1
-358.03 -1247.50 2157.8
-344.27 -1258.57 2176.9
-323.34 -1222.11 2113.8
-305.13 -1260.09 2179.5
-293.42 -1234.58 2135.4
-282.04 -1257.91 2175.8
-277.45 -1262.70 2184.0
-214.58 -1259.24 2178.1
-208.97 -1259.47 2178.5
-199.01 -1232.76 2132.3
-189.52 -1207.53 2088.6
-190.68 -1250.66 2163.2
-168.25 -1210.33 2093.5
-164.39 -1222.00 2113.6
-162.51 -1249.65 2161.5
-155.55 -1238.84 2142.8
-151.10 -1248.00 2158.6
-88.11 -1227.98 2124.0
-81.53 -1212.07 2096.5
-76.19 -1213.66 2099.2
-65.48 -1216.82 2104.7
-61.06 -1237.90 2141.2
-54.08 -1205.94 2085.9
-49.97 -1238.03 2141.4
-39.65 -1263.15 2184.8
-32.63 -1212.65 2097.5
-27.28 -1216.68 2104.4
-16.97 -1261.28 2181.6
-5.66 -1262.30 2183.4
0.00 -1249.29 2160.9
27.62 -1231.70 2130.4
33.34 -1239.17 2143.3
38.74 -1234.13 2134.6
44.29 -1234.58 2135.4
50.31 -1246.54 2156.1
54.21 -1208.95 2091.1
70.58 -1210.74 2094.2
77.01 -1226.66 2121.7
97.61 -1209.27 2091.6
106.09 -1245.16 2153.7
119.30 -1209.28 2091.6
127.49 -1236.13 2138.1
152.19 -1257.00 2174.2
150.91 -1201.88 2078.8
160.43 -1233.67 2133.8
173.80 -1250.27 2162.6
181.27 -1224.92 2118.7
193.94 -1201.33 2077.9
199.45 -1202.11 2079.2
211.52 -1241.28 2147.0
211.11 -1207.14 2087.9
242.45 -1228.80 2125.4
245.40 -1216.08 2103.4
255.41 -1238.21 2141.7
257.34 -1221.00 2111.9
258.47 -1200.80 2077.0
269.15 -1224.89 2118.6
272.12 -1213.65 2099.2
279.03 -1196.62 2069.8
292.83 -1232.10 2131.1
328.33 -1240.96 2146.4
333.79 -1240.60 2145.8
344.00 -1257.58 2175.2
340.44 -1224.48 2117.9
347.22 -1229.06 2125.9
374.89 -1247.78 2158.2
380.66 -1248.35 2159.2
372.66 -1204.40 2083.2
380.53 -1195.17 2067.2
388.78 -1204.14 2082.8
404.71 -1236.31 2138.4
426.43 -1251.24 2164.2
418.60 -1212.30 2096.9
421.63 -1205.43 2085.0
437.87 -1236.02 2137.9
439.88 -1226.18 2120.9
433.94 -1194.67 2066.4
445.40 -1196.67 2069.8
453.36 -1203.56 2081.8
466.44 -1223.72 2116.6
475.52 -1233.04 2132.7
465.71 -1193.71 2064.7
505.89 -1239.72 2144.3
508.99 -1220.48 2111.0
512.58 -1216.02 2103.3
531.35 -1247.28 2157.4
537.73 -1211.24 2095.0
536.55 -1196.50 2069.5
563.51 -1208.30 2090.0
600.73 -1240.40 2145.5
606.06 -1217.58 2106.0
612.03 -1197.21 2070.8
653.62 -1235.23 2136.5
654.92 -1227.29 2122.8
649.91 -1207.75 2089.0
687.64 -1246.70 2156.4
692.61 -1235.62 2137.2
672.71 -1190.59 2059.3
697.11 -1224.06 2117.2
704.94 -1228.14 2124.3
701.40 -1212.51 2097.2
716.22 -1228.59 2125.0
736.85 -1217.17 2105.3
726.37 -1191.04 2060.1
746.24 -1214.69 2101.0
756.54 -1222.52 2114.6
770.77 -1236.56 2138.8
788.10 -1246.42 2155.9
764.93 -1201.27 2077.8
784.79 -1223.84 2116.8
797.14 -1234.47 2135.2
807.10 -1241.27 2147.0
814.62 -1244.25 2152.1
817.46 -1240.10 2144.9
838.84 -1247.08 2157.0
832.31 -1229.17 2126.0
838.86 -1230.70 2128.7
841.20 -1226.06 2120.7
842.19 -1219.54 2109.4
845.43 -1216.33 2103.8
852.27 -1218.31 2107.3
850.16 -1207.55 2088.6
844.94 -1192.54 2062.7
848.00 -1189.34 2057.2
850.03 -1184.72 2049.2
889.52 -1216.96 2104.9
915.75 -1245.19 2153.8
924.13 -1248.98 2160.3
938.78 -1238.75 2142.6
937.82 -1215.89 2103.1
940.75 -1212.64 2097.5
933.83 -1196.80 2070.1
953.10 -1214.52 2100.7
989.12 -1218.64 2107.8
996.29 -1200.93 2077.2
1040.56 -1247.55 2157.8
1036.41 -1235.94 2137.8
1049.28 -1244.63 2152.8
1039.91 -1220.52 2111.1
1036.09 -1203.37 2081.4
1072.04 -1238.67 2142.5
1066.33 -1225.73 2120.1
1047.69 -1198.12 2072.3
1140.25 -1234.35 2135.0
1121.64 -1208.33 2090.0
1111.70 -1191.87 2061.5
1127.98 -1203.54 2081.7
1155.42 -1226.94 2122.2
1165.05 -1231.31 2129.7
1178.15 -1239.28 2143.5
1164.74 -1208.08 2089.6
1158.97 -1185.56 2050.6
1199.43 -1221.34 2112.5
1254.90 -1238.24 2141.7
1229.80 -1208.13 2089.7
1211.32 -1184.76 2049.2
1227.87 -1195.70 2068.1
1231.65 -1194.16 2065.5
1243.69 -1200.62 2076.7
1280.55 -1220.35 2110.8
1268.04 -1203.29 2081.3
1301.27 -1229.59 2126.8
1309.33 -1231.99 2130.9
1277.82 -1197.29 2070.9
1291.92 -1205.43 2085.0
1302.75 -1210.47 2093.7
1280.12 -1179.61 2040.3
1350.75 -1239.58 2144.1
1360.31 -1243.24 2150.4
1328.46 -1209.17 2091.4
1341.32 -1215.91 2103.1
1359.55 -1227.45 2123.1
1334.57 -1200.04 2075.7
1338.19 -1198.46 2072.9
1388.33 -1228.56 2125.0
1399.41 -1233.47 2133.5
1397.45 -1217.31 2105.5
1424.90 -1217.44 2105.8
1472.25 -1238.91 2142.9
1460.97 -1224.79 2118.5
1470.33 -1214.38 2100.5
1468.07 -1208.04 2089.5
1436.59 -1177.79 2037.2
1457.35 -1186.09 2051.5
1470.14 -1192.15 2062.0
1525.61 -1232.65 2132.1
1529.34 -1226.77 2121.9
1525.33 -1219.17 2108.8
1535.11 -1222.60 2114.7
1501.81 -1183.40 2046.9
1512.56 -1179.37 2039.9
1539.58 -1196.26 2069.1
1547.71 -1198.40 2072.8
1577.07 -1216.91 2104.8
1587.46 -1220.70 2111.4
1616.45 -1238.72 2142.6
1620.37 -1229.05 2125.8
1578.38 -1193.15 2063.7
1553.32 -1170.23 2024.1
1595.22 -1197.76 2071.7
1644.52 -1230.63 2128.6
1597.62 -1191.54 2061.0
-1702.22 -1246.07 2145.7
-1701.82 -1249.86 2152.2
-1657.63 -1241.84 2138.4
-1668.24 -1253.98 2159.3
-1633.37 -1248.72 2150.2
-1648.09 -1264.29 2177.0
-1638.67 -1261.38 2172.0
-1551.50 -1282.42 2208.3
-1534.33 -1277.66 2200.1
-1497.18 -1251.38 2154.8
-1471.02 -1243.43 2141.1
-1446.94 -1241.82 2138.3
-1465.97 -1262.99 2174.8
-1408.33 -1241.99 2138.6
-1430.29 -1266.34 2180.6
-1367.20 -1244.93 2143.7
-1368.23 -1250.96 2154.1
-1369.70 -1257.43 2165.2
-1359.15 -1252.88 2157.4
-1333.77 -1250.06 2152.5
-1318.13 -1240.59 2136.2
-1328.66 -1271.88 2190.1
-1319.73 -1274.23 2194.1
-1282.14 -1243.29 2140.9
-1275.88 -1259.01 2167.9
-1270.51 -1270.51 2187.7
-1236.46 -1242.00 2138.7
-1246.27 -1257.50 2165.3
-1241.77 -1258.63 2167.3
-1186.81 -1230.76 2119.3
-1186.69 -1236.37 2129.0
-1129.20 -1246.01 2145.6
-1116.75 -1238.37 2132.4
-1123.66 -1252.24 2156.3
-1129.64 -1265.20 2178.6
-1121.27 -1262.13 2173.3
-1127.92 -1276.03 2197.3
-1124.37 -1278.47 2201.5
-1093.04 -1249.19 2151.0
-1083.73 -1257.80 2165.9
-1072.27 -1250.98 2154.1
-1054.99 -1243.77 2141.7
-1070.03 -1274.93 2195.4
-1034.59 -1259.50 2168.8
-1025.23 -1254.92 2160.9
-1018.25 -1274.23 2194.1
-998.56 -1278.15 2200.9
-986.11 -1276.82 2198.6
-943.83 -1273.60 2193.1
-901.00 -1238.18 2132.1
-906.02 -1252.76 2157.2
-904.13 -1257.91 2166.1
-888.12 -1251.19 2154.5
-886.41 -1272.80 2191.7
-865.59 -1250.92 2154.0
-838.33 -1268.83 2184.8
-821.33 -1251.55 2155.1
-822.51 -1261.93 2173.0
-754.28 -1233.28 2123.6
-772.87 -1272.97 2192.0
-748.37 -1260.42 2170.4
-738.66 -1253.48 2158.4
-725.96 -1260.58 2170.6
-682.71 -1223.43 2106.7
-665.79 -1232.54 2122.4
-659.62 -1231.30 2120.2
-659.65 -1241.69 2138.1
-662.22 -1267.84 2183.1
-644.34 -1244.24 2142.5
-653.36 -1272.63 2191.4
-642.09 -1261.64 2172.5
-618.62 -1226.29 2111.6
-615.84 -1254.08 2159.4
-610.32 -1254.24 2159.7
-573.54 -1223.55 2106.9
-566.55 -1220.25 2101.2
-582.75 -1267.34 2182.3
-567.79 -1246.91 2147.1
-565.59 -1254.37 2160.0
-549.14 -1255.18 2161.4
-527.50 -1230.82 2119.4
-535.99 -1263.81 2176.2
-505.62 -1231.09 2119.9
-499.35 -1229.17 2116.6
-486.74 -1267.80 2183.1
-466.68 -1229.85 2117.7
-472.12 -1258.97 2167.9
-415.54 -1241.08 2137.1
-406.71 -1231.13 2119.9
-381.43 -1238.25 2132.2
-376.33 -1239.66 2134.6
-379.23 -1267.89 2183.2
-368.72 -1251.41 2154.9
-357.34 -1231.44 2120.5
-356.50 -1247.74 2148.5
-319.31 -1212.29 2087.5
-314.04 -1256.18 2163.1
-298.36 -1215.15 2092.4
-298.19 -1236.92 2129.9
-299.00 -1263.68 2176.0
-286.61 -1258.84 2167.6
-265.12 -1263.56 2175.8
-177.82 -1244.76 2143.4
-162.67 -1214.58 2091.4
-158.89 -1227.29 2113.3
-147.13 -1220.62 2101.8
-147.05 -1266.90 2181.5
-89.01 -1246.15 2145.8
-81.77 -1221.16 2102.8
-75.79 -1212.71 2088.2
-70.39 -1212.79 2088.4
-67.50 -1260.06 2169.7
-39.17 -1253.33 2158.2
-16.34 -1219.81 2100.4
27.05 -1211.73 2086.5
38.46 -1230.73 2119.2
50.33 -1252.73 2157.1
69.92 -1204.76 2074.5
117.48 -1253.10 2157.8
128.33 -1249.82 2152.1
132.66 -1238.13 2132.0
156.25 -1250.02 2152.5
158.89 -1227.29 2113.3
163.47 -1220.59 2101.8
172.15 -1243.96 2142.0
177.61 -1243.26 2140.8
179.44 -1218.01 2097.3
190.24 -1253.36 2158.2
196.29 -1221.39 2103.2
199.97 -1210.66 2084.7
210.35 -1239.95 2135.1
219.24 -1259.23 2168.3
228.38 -1247.72 2148.5
247.13 -1230.17 2118.3
252.05 -1227.39 2113.5
289.29 -1200.03 2066.4
324.43 -1252.98 2157.6
326.91 -1241.17 2137.2
344.74 -1225.75 2110.7
351.95 -1231.83 2121.1
367.99 -1248.93 2150.6
372.99 -1247.03 2147.3
378.67 -1229.32 2116.8
380.78 -1218.48 2098.2
383.57 -1210.13 2083.8
394.09 -1209.27 2082.3
407.86 -1234.60 2125.9
418.03 -1248.51 2149.9
421.77 -1243.10 2140.5
419.33 -1219.87 2100.5
427.03 -1226.34 2111.7
438.44 -1243.18 2140.7
435.35 -1218.97 2099.0
447.48 -1207.64 2079.5
471.56 -1257.49 2165.3
473.23 -1247.11 2147.5
470.84 -1226.38 2111.7
481.67 -1240.16 2135.5
488.55 -1243.57 2141.4
491.54 -1237.13 2130.3
508.65 -1225.13 2109.6
524.53 -1236.79 2129.7
533.91 -1220.36 2101.4
580.62 -1250.57 2153.4
612.01 -1246.28 2146.0
592.14 -1194.94 2057.6
625.99 -1230.02 2118.0
622.90 -1213.30 2089.2
639.64 -1224.61 2108.7
659.58 -1252.09 2156.0
657.59 -1237.81 2131.4
647.67 -1208.99 2081.8
675.70 -1210.85 2085.0
697.29 -1239.63 2134.6
709.18 -1241.06 2137.0
699.57 -1214.75 2091.7
706.52 -1217.40 2096.3
741.67 -1221.57 2103.5
791.75 -1223.12 2106.1
812.19 -1229.26 2116.7
825.37 -1224.40 2108.3
815.76 -1202.17 2070.1
823.16 -1205.15 2075.2
827.64 -1203.84 2072.9
831.45 -1201.58 2069.1
837.55 -1202.64 2070.9
866.57 -1236.38 2129.0
887.00 -1241.80 2138.3
867.12 -1206.43 2077.4
896.88 -1232.52 2122.3
913.16 -1239.68 2134.7
893.61 -1205.83 2076.4
929.89 -1225.26 2109.8
919.62 -1204.65 2074.3
935.46 -1218.27 2097.8
947.42 -1226.72 2112.3
946.72 -1218.77 2098.7
954.36 -1221.59 2103.5
992.21 -1248.63 2150.1
997.19 -1234.09 2125.0
969.80 -1193.60 2055.3
988.83 -1203.79 2072.9
1026.75 -1243.20 2140.7
1026.14 -1229.18 2116.6
1001.29 -1193.02 2054.3
1051.06 -1245.70 2145.0
1041.66 -1228.07 2114.7
1024.83 -1195.63 2058.8
1056.50 -1201.30 2068.6
1053.27 -1191.58 2051.8
1100.08 -1238.28 2132.2
1108.87 -1235.75 2127.9
1076.32 -1193.54 2055.2
1095.23 -1208.53 2081.0
1113.84 -1223.04 2106.0
1130.54 -1217.51 2096.5
1142.21 -1224.19 2108.0
1165.43 -1243.13 2140.6
1169.97 -1242.05 2138.7
1188.70 -1244.24 2142.5
1164.98 -1213.75 2090.0
1176.35 -1219.92 2100.6
1189.94 -1228.33 2115.1
1209.30 -1242.58 2139.7
1192.17 -1219.39 2099.7
1172.23 -1193.54 2055.2
1168.07 -1183.93 2038.6
1183.89 -1194.56 2057.0
1234.67 -1240.21 2135.6
1244.85 -1239.32 2134.0
1239.32 -1228.35 2115.1
1250.48 -1233.95 2124.8
1268.50 -1246.25 2146.0
1263.31 -1235.73 2127.9
1244.30 -1211.84 2086.7
1218.68 -1181.75 2034.9
1251.44 -1208.29 2080.6
1279.97 -1220.06 2100.9
1291.71 -1226.03 2111.2
1311.00 -1239.09 2133.6
1285.65 -1210.02 2083.6
1321.96 -1238.99 2133.5
1324.83 -1231.38 2120.4
1342.91 -1243.02 2140.4
1343.20 -1228.07 2114.7
1403.65 -1242.75 2139.9
1386.56 -1222.79 2105.6
1406.56 -1235.56 2127.6
1385.82 -1212.59 2088.0
1351.44 -1177.91 2028.3
1361.39 -1181.99 2035.3
1360.32 -1176.49 2025.9
1382.37 -1190.97 2050.8
1399.97 -1201.51 2068.9
1390.79 -1189.07 2047.5
1428.63 -1207.60 2079.4
1470.30 -1224.34 2108.2
1467.57 -1217.54 2096.5
1452.33 -1200.45 2067.1
1448.07 -1175.25 2023.7
1470.85 -1189.43 2048.1
1470.54 -1180.65 2033.0
1504.63 -1203.70 2072.7
1525.53 -1216.08 2094.0
1502.70 -1193.63 2055.4
1492.57 -1181.40 2034.3
1499.01 -1182.32 2035.9
1535.10 -1202.32 2070.3
1587.60 -1239.10 2133.7
1574.52 -1199.63 2065.7
1560.04 -1184.57 2039.8
1573.67 -1190.88 2050.6
-1813.30 -1274.97 2185.7
-1639.30 -1250.31 2143.4
-1632.67 -1249.49 2142.0
-1616.14 -1245.32 2134.8
-1586.19 -1247.88 2139.2
-1555.95 -1241.45 2128.2
-1571.70 -1258.48 2157.4
-1516.47 -1277.92 2190.7
-1458.06 -1242.66 2130.3
-1472.74 -1259.94 2159.9
-1480.84 -1281.49 2196.8
-1452.50 -1261.82 2163.1
-1434.60 -1255.97 2153.1
-1445.32 -1270.30 2177.7
-1447.02 -1276.78 2188.8
-1439.77 -1275.38 2186.4
-1441.01 -1286.61 2205.6
-1392.07 -1247.87 2139.2
-1386.17 -1257.62 2155.9
-1403.19 -1278.21 2191.2
-1392.08 -1273.24 2182.7
-1370.42 -1258.54 2157.5
-1368.99 -1262.39 2164.1
-1359.88 -1259.15 2158.5
-1340.24 -1256.48 2154.0
-1366.58 -1286.53 2205.5
-1333.44 -1260.60 2161.0
-1310.05 -1254.30 2150.2
-1326.73 -1281.18 2196.3
-1286.29 -1247.48 2138.5
-1250.26 -1239.25 2124.4
-1274.78 -1274.78 2185.3
-1215.75 -1249.06 2141.2
-1191.48 -1235.40 2117.8
-1226.22 -1277.31 2189.7
-1176.76 -1279.08 2192.7
-1160.34 -1267.36 2172.6
-1166.96 -1280.81 2195.7
-1148.54 -1266.77 2171.6
-1136.01 -1259.12 2158.5
-1134.66 -1263.86 2166.6
-1118.18 -1264.27 2167.3
-1101.65 -1264.65 2168.0
-1061.52 -1231.14 2110.5
-1079.53 -1258.51 2157.5
-1070.46 -1254.45 2150.5
-1048.84 -1235.55 2118.1
-1032.91 -1229.65 2108.0
-1056.21 -1264.08 2167.0
-1031.73 -1241.38 2128.1
-1019.88 -1247.14 2137.9
-1015.90 -1249.05 2141.2
-1032.27 -1276.16 2187.7
-981.99 -1241.28 2127.9
-970.98 -1241.31 2128.0
-985.18 -1266.65 2171.4
-922.31 -1242.64 2130.2
-930.70 -1261.49 2162.6
-919.44 -1277.00 2189.1
-893.73 -1249.00 2141.1
-877.51 -1241.76 2128.7
-896.62 -1276.83 2188.9
-886.93 -1271.08 2179.0
-868.86 -1269.44 2176.2
-854.42 -1256.50 2154.0
-846.84 -1253.54 2148.9
-856.25 -1275.87 2187.2
-833.08 -1266.50 2171.1
-805.80 -1233.36 2114.3
-826.95 -1274.41 2184.7
-771.27 -1248.46 2140.2
-776.54 -1266.10 2170.5
-777.56 -1277.01 2189.2
-741.01 -1263.09 2165.3
-742.04 -1274.49 2184.8
-721.94 -1269.04 2175.5
-708.96 -1276.13 2187.6
-684.96 -1242.88 2130.7
-688.33 -1259.14 2158.5
-689.45 -1271.52 2179.8
-685.49 -1274.68 2185.2
-658.41 -1234.52 2116.3
-663.23 -1264.64 2168.0
-634.10 -1229.94 2108.5
-630.22 -1233.05 2113.8
-646.35 -1275.70 2186.9
-611.60 -1251.00 2144.6
-608.49 -1256.05 2153.2
-584.15 -1251.74 2145.8
-549.98 -1225.20 2100.3
-541.05 -1242.21 2129.5
-525.38 -1218.66 2089.1
-538.70 -1262.57 2164.4
-510.54 -1235.19 2117.5
-499.41 -1234.80 2116.8
-501.64 -1254.11 2149.9
-498.04 -1259.10 2158.5
-490.34 -1253.70 2149.2
-483.82 -1251.27 2145.0
-468.55 -1270.17 2177.4
-461.29 -1265.72 2169.8
-451.80 -1270.69 2178.3
-395.41 -1235.66 2118.3
-372.00 -1230.88 2110.1
-367.29 -1252.12 2146.5
-287.88 -1270.06 2177.3
-281.75 -1267.88 2173.5
-214.27 -1268.70 2174.9
-170.58 -1238.05 2122.4
-163.76 -1228.19 2105.5
-149.62 -1246.82 2137.4
-73.27 -1268.21 2174.1
-67.53 -1266.27 2170.8
-38.56 -1239.37 2124.6
-32.41 -1215.23 2083.2
-27.48 -1236.42 2119.6
-22.16 -1246.53 2136.9
-5.63 -1267.23 2172.4
0.00 -1222.90 2096.4
5.36 -1206.77 2068.7
11.19 -1258.66 2157.7
32.97 -1236.39 2119.5
38.50 -1237.36 2121.2
50.42 -1260.43 2160.7
53.93 -1213.52 2080.3
59.23 -1211.44 2076.8
66.46 -1246.13 2136.2
72.95 -1262.67 2164.6
116.69 -1250.23 2143.3
148.77 -1239.78 2125.3
167.39 -1214.93 2082.7
178.12 -1252.43 2147.0
200.33 -1252.09 2146.4
206.52 -1255.88 2152.9
236.28 -1236.32 2119.4
242.89 -1242.07 2129.3
248.26 -1241.30 2127.9
247.47 -1210.44 2075.0
256.77 -1229.21 2107.2
274.11 -1258.67 2157.7
305.36 -1226.89 2103.2
309.84 -1223.05 2096.7
318.92 -1237.19 2120.9
354.26 -1245.44 2135.0
358.67 -1241.55 2128.4
365.10 -1244.64 2133.7
384.98 -1255.36 2152.0
377.72 -1214.11 2081.3
394.79 -1216.82 2086.0
406.76 -1236.76 2120.2
413.60 -1240.79 2127.1
425.67 -1260.20 2160.3
430.77 -1258.74 2157.8
434.30 -1252.80 2147.7
441.45 -1257.29 2155.3
452.45 -1256.80 2154.5
439.79 -1206.75 2068.7
450.64 -1221.62 2094.2
478.08 -1250.80 2144.2
497.09 -1202.63 2061.7
509.61 -1206.97 2069.1
531.34 -1245.33 2134.9
533.87 -1238.36 2122.9
534.83 -1227.93 2105.0
540.90 -1229.32 2107.4
535.40 -1204.65 2065.1
562.35 -1228.43 2105.9
619.97 -1256.70 2154.4
604.79 -1214.99 2082.8
608.15 -1210.93 2075.9
627.31 -1238.11 2122.5
617.26 -1207.67 2070.3
633.39 -1218.06 2088.1
642.08 -1193.95 2046.8
674.72 -1214.50 2082.0
683.53 -1220.58 2092.4
685.26 -1214.05 2081.2
707.89 -1244.33 2133.1
708.59 -1226.40 2102.4
720.93 -1238.23 2122.7
750.22 -1241.18 2127.7
781.41 -1255.84 2152.9
767.52 -1224.76 2099.6
790.95 -1227.33 2104.0
780.96 -1203.53 2063.2
798.61 -1222.36 2095.5
822.06 -1249.76 2142.4
831.91 -1239.60 2125.0
823.87 -1203.71 2063.5
857.82 -1237.24 2121.0
862.72 -1236.38 2119.5
877.79 -1226.72 2102.9
878.17 -1219.68 2090.9
877.59 -1196.72 2051.5
912.60 -1207.86 2070.6
919.43 -1209.78 2073.9
954.67 -1248.84 2140.9
973.91 -1238.02 2122.3
953.11 -1204.77 2065.3
956.61 -1202.44 2061.3
981.77 -1227.21 2103.8
986.83 -1226.73 2103.0
987.36 -1220.64 2092.5
1009.83 -1241.59 2128.4
1027.86 -1236.74 2120.1
1027.06 -1222.69 2096.0
1048.11 -1241.18 2127.7
1039.01 -1223.96 2098.2
1019.90 -1195.20 2048.9
1050.96 -1225.21 2100.4
1077.81 -1224.79 2099.6
1056.71 -1194.78 2048.2
1087.04 -1198.94 2055.3
1156.10 -1250.58 2143.9
1153.51 -1230.05 2108.6
1122.80 -1191.66 2042.8
1136.61 -1195.04 2048.6
1163.92 -1218.05 2088.1
1191.39 -1241.03 2127.5
1212.23 -1245.44 2135.0
1177.79 -1204.56 2065.0
1177.00 -1182.25 2026.7
1192.89 -1192.89 2045.0
1197.56 -1192.26 2043.9
1220.81 -1210.05 2074.4
1255.56 -1228.26 2105.6
1214.84 -1183.28 2028.5
1236.96 -1199.64 2056.5
1289.26 -1245.00 2134.3
1282.47 -1233.14 2114.0
1242.52 -1189.65 2039.4
1250.39 -1192.11 2043.6
1262.97 -1199.02 2055.5
1247.36 -1179.23 2021.5
1293.91 -1218.11 2088.2
1364.81 -1238.23 2122.7
1353.91 -1223.41 2097.3
1381.50 -1243.35 2131.5
1361.20 -1220.20 2091.8
1359.42 -1213.77 2080.7
1371.89 -1220.06 2091.5
1368.76 -1198.33 2054.3
1395.76 -1217.24 2086.7
1414.87 -1229.13 2107.1
1408.88 -1219.23 2090.1
1398.80 -1205.86 2067.2
1418.47 -1218.15 2088.3
1413.36 -1209.15 2072.8
1387.63 -1178.18 2019.7
1463.66 -1238.06 2122.4
1468.23 -1237.27 2121.0
1499.38 -1244.87 2134.1
1471.69 -1217.39 2086.9
1487.10 -1225.63 2101.1
1514.07 -1243.31 2131.4
1509.69 -1235.20 2117.5
1495.26 -1218.96 2089.7
1472.82 -1196.33 2050.9
1454.46 -1177.17 2018.0
1473.59 -1188.38 2037.2
1485.35 -1193.58 2046.1
1484.89 -1188.97 2038.2
1479.59 -1180.53 2023.8
1491.37 -1185.72 2032.7
1557.91 -1234.26 2115.9
1574.87 -1238.97 2123.9
1553.35 -1217.79 2087.6
1587.69 -1227.60 2104.5
1578.32 -1212.02 2077.7
1559.53 -1193.52 2046.0
1610.63 -1228.45 2105.9
1628.24 -1237.68 2121.7
1571.69 -1190.68 2041.2
-1699.99 -1251.46 2135.9
-1687.75 -1246.51 2127.4
-1661.10 -1251.36 2135.7
-1648.47 -1262.90 2155.4
-1617.64 -1247.73 2129.5
-1660.80 -1285.41 2193.8
-1626.26 -1263.00 2155.6
-1580.07 -1248.59 2131.0
-1585.28 -1257.10 2145.5
-1605.45 -1277.58 2180.4
-1560.77 -1246.41 2127.2
-1552.87 -1248.93 2131.5
-1518.88 -1266.67 2161.8
-1537.00 -1286.53 2195.7
-1501.38 -1261.38 2152.8
-1487.50 -1254.39 2140.9
-1518.79 -1285.57 2194.1
-1488.52 -1264.68 2158.4
-1467.95 -1261.43 2152.9
-1447.62 -1248.71 2131.2
-1446.41 -1257.26 2145.8
-1442.24 -1258.48 2147.9
-1430.57 -1253.14 2138.7
-1457.80 -1281.96 2187.9
-1452.23 -1287.07 2196.6
-1411.86 -1256.22 2144.0
-1433.76 -1280.75 2185.9
-1437.81 -1289.46 2200.7
-1388.92 -1250.58 2134.4
-1369.78 -1243.25 2121.9
-1393.22 -1269.63 2166.9
-1405.36 -1285.88 2194.6
-1387.02 -1274.25 2174.8
-1329.62 -1241.71 2119.2
-1343.40 -1259.78 2150.1
-1313.38 -1252.42 2137.5
-1306.10 -1256.08 2143.7
-1303.59 -1259.02 2148.8
-1326.02 -1286.18 2195.1
-1295.47 -1267.43 2163.1
-1299.73 -1277.12 2179.7
-1302.55 -1285.48 2193.9
-1273.50 -1262.33 2154.4
-1243.26 -1237.78 2112.5
-1249.36 -1254.91 2141.8
-1244.92 -1256.04 2143.7
-1242.71 -1259.43 2149.5
-1235.09 -1263.03 2155.6
-1215.14 -1248.28 2130.4
-1241.92 -1281.62 2187.3
-1222.88 -1267.75 2163.7
-1182.03 -1236.75 2110.8
-1199.26 -1260.62 2151.5
-1206.38 -1274.03 2174.4
-1135.02 -1251.29 2135.6
-1141.65 -1264.77 2158.6
-1145.70 -1275.50 2176.9
-1124.26 -1270.41 2168.2
-1091.10 -1239.14 2114.8
-1094.21 -1248.95 2131.6
-1119.43 -1284.21 2191.8
-1107.84 -1277.40 2180.1
-1092.29 -1265.94 2160.6
-1089.60 -1275.90 2177.6
-1040.10 -1243.71 2122.6
-1014.83 -1239.74 2115.9
-1002.79 -1238.42 2113.6
-1001.73 -1257.73 2146.6
-994.58 -1277.13 2179.7
-924.20 -1250.71 2134.6
-908.54 -1236.93 2111.1
-917.85 -1264.84 2158.7
-889.61 -1233.45 2105.1
-890.24 -1241.94 2119.6
-900.63 -1264.24 2157.7
-901.40 -1273.23 2173.0
-884.67 -1257.46 2146.1
-866.73 -1239.75 2115.9
-860.86 -1239.19 2114.9
-870.80 -1261.54 2153.1
-877.61 -1279.61 2183.9
-870.92 -1278.10 2181.3
-811.17 -1238.68 2114.1
-805.62 -1247.05 2128.3
-810.96 -1272.75 2172.2
-805.85 -1273.58 2173.6
-778.51 -1256.74 2144.9
-753.62 -1234.19 2106.4
-744.23 -1227.71 2095.3
-747.70 -1242.51 2120.6
-722.99 -1247.29 2128.8
-718.63 -1258.99 2148.7
-695.56 -1247.60 2129.3
-698.52 -1262.93 2155.4
-697.34 -1270.97 2169.2
-665.24 -1252.86 2138.3
-653.60 -1251.81 2136.5
-647.25 -1271.98 2170.9
-595.52 -1234.75 2107.4
-597.17 -1249.64 2132.8
-597.78 -1274.51 2175.2
-569.24 -1261.26 2152.6
-550.49 -1231.79 2102.3
-558.84 -1262.97 2155.5
-532.45 -1240.54 2117.2
-531.19 -1250.51 2134.2
-524.05 -1273.49 2173.5
-490.75 -1274.81 2175.7
-460.75 -1239.63 2115.7
-454.99 -1269.47 2166.6
-424.52 -1246.01 2126.6
-420.68 -1250.95 2135.0
-410.56 -1253.86 2140.0
-377.00 -1252.97 2138.5
-361.65 -1219.89 2082.0
-367.32 -1257.80 2146.7
-310.13 -1229.63 2098.6
-313.35 -1264.58 2158.3
-300.16 -1256.23 2144.0
-293.50 -1251.54 2136.0
-290.24 -1261.41 2152.8
-285.75 -1266.25 2161.1
-268.60 -1264.67 2158.4
-245.86 -1262.80 2155.2
-239.94 -1261.06 2152.3
-217.97 -1263.09 2155.7
-211.74 -1259.31 2149.3
-203.73 -1244.43 2123.9
-199.31 -1251.20 2135.4
-194.90 -1258.48 2147.8
-179.49 -1267.68 2163.6
-171.08 -1247.20 2128.6
-166.52 -1254.45 2141.0
-161.45 -1258.17 2147.3
-112.27 -1268.65 2165.2
-61.23 -1257.91 2146.9
-54.79 -1238.26 2113.3
-49.13 -1233.77 2105.7
-43.28 -1222.70 2086.8
-37.59 -1213.65 2071.3
-32.68 -1230.88 2100.7
0.00 -1235.54 2108.7
5.43 -1227.45 2094.9
32.49 -1223.80 2088.7
49.29 -1237.81 2112.6
54.54 -1232.70 2103.9
70.49 -1225.41 2091.4
109.77 -1240.36 2116.9
116.23 -1250.84 2134.8
119.05 -1222.94 2087.2
125.93 -1237.44 2111.9
133.86 -1260.52 2151.3
148.12 -1239.85 2116.1
176.98 -1212.02 2068.6
186.86 -1242.06 2119.8
214.23 -1241.44 2118.8
224.31 -1236.41 2110.2
231.51 -1216.78 2076.7
248.48 -1247.94 2129.9
268.25 -1237.23 2111.6
277.77 -1255.51 2142.8
279.63 -1239.13 2114.8
299.80 -1209.90 2064.9
303.68 -1204.05 2055.0
311.49 -1213.74 2071.5
351.38 -1260.49 2151.3
350.75 -1238.58 2113.9
349.07 -1213.68 2071.4
368.17 -1241.89 2119.5
381.50 -1249.56 2132.6
376.23 -1214.67 2073.1
377.86 -1202.77 2052.8
393.86 -1236.29 2110.0
396.45 -1227.37 2094.8
409.50 -1233.96 2106.0
424.18 -1245.01 2124.9
414.23 -1200.22 2048.4
433.65 -1240.58 2117.3
450.86 -1242.61 2120.8
445.41 -1212.79 2069.9
454.10 -1221.74 2085.1
460.44 -1224.22 2089.4
460.37 -1209.82 2064.8
472.03 -1226.18 2092.7
486.89 -1222.63 2086.7
494.68 -1228.54 2096.8
505.34 -1241.37 2118.7
495.53 -1204.20 2055.2
501.05 -1204.65 2056.0
515.50 -1226.35 2093.0
529.09 -1245.56 2125.8
534.14 -1244.49 2124.0
536.61 -1237.50 2112.0
544.43 -1242.84 2121.2
540.50 -1221.53 2084.8
554.90 -1241.65 2119.1
574.77 -1261.14 2152.4
561.03 -1219.16 2080.7
558.60 -1202.31 2052.0
573.33 -1222.37 2086.2
598.52 -1229.70 2098.7
607.99 -1237.89 2112.7
608.04 -1226.94 2094.0
603.42 -1196.24 2041.6
620.34 -1219.10 2080.6
632.93 -1233.12 2104.6
635.25 -1227.07 2094.2
644.41 -1234.22 2106.4
662.13 -1247.00 2128.3
641.66 -1198.48 2045.4
658.32 -1199.84 2047.8
683.71 -1236.15 2109.7
690.68 -1238.84 2114.3
672.25 -1196.29 2041.7
677.70 -1196.56 2042.2
714.19 -1251.22 2135.5
723.21 -1257.27 2145.8
698.52 -1205.08 2056.7
730.00 -1240.45 2117.1
729.37 -1212.04 2068.6
