ply
format ascii 1.0
element vertex 2106
property float x
property float y
property float z
end_header
1714.95 1349.79 2515.1
1760.53 1380.42 2572.2
1759.72 1374.57 2561.3
1752.11 1363.48 2540.7
1777.22 1377.84 2567.4
1876.57 1449.44 2700.8
1859.88 1415.42 2637.4
1831.46 1388.69 2587.6
1817.19 1372.84 2558.1
1836.31 1382.24 2575.6
1922.69 1442.02 2687.0
1949.05 1456.51 2714.0
1874.19 1395.53 2600.4
1803.21 1337.86 2492.9
1853.42 1365.33 2544.1
1942.57 1425.93 2657.0
1950.69 1426.83 2658.7
1931.05 1407.49 2622.7
1961.47 1424.65 2654.6
1876.60 1358.24 2530.9
1910.16 1368.18 2549.4
1913.10 1365.56 2544.5
1990.98 1401.81 2612.1
2051.53 1439.55 2682.4
2007.57 1403.94 2616.0
2071.86 1429.58 2663.8
2097.13 1437.43 2678.4
2073.94 1416.85 2640.1
2085.40 1419.99 2646.0
2004.84 1360.66 2535.4
2058.53 1392.54 2594.8
2061.79 1385.68 2582.0
2076.31 1381.98 2575.1
2150.39 1426.70 2658.5
2095.63 1385.93 2582.5
2091.31 1378.66 2568.9
2141.26 1407.11 2621.9
2174.99 1424.76 2654.8
2237.58 1461.13 2722.6
2273.31 1475.16 2748.7
-1840.18 1184.62 2218.1
-1638.04 1218.18 2280.9
-1571.36 1172.83 2196.0
-1604.55 1201.95 2250.5
-1585.09 1204.90 2256.1
-1404.33 1161.82 2175.4
-1385.76 1151.07 2155.3
-1386.81 1236.73 2315.6
-1364.42 1222.05 2288.2
-1360.24 1223.62 2291.1
-1350.94 1220.59 2285.4
-1292.36 1238.26 2318.5
-1291.47 1243.19 2327.8
-1283.97 1241.77 2325.1
-1235.46 1200.50 2247.8
-1196.41 1168.06 2187.1
-1235.96 1212.42 2270.1
-1199.15 1241.33 2324.3
-1177.24 1224.80 2293.3
-1160.38 1213.40 2272.0
-1087.32 1237.50 2317.1
-1020.88 1215.61 2276.1
-1031.51 1235.42 2313.2
-944.16 1254.82 2349.5
-823.91 1257.22 2354.0
-813.79 1270.01 2378.0
-780.24 1236.38 2315.0
-752.37 1201.46 2249.6
-782.40 1259.17 2357.7
-764.91 1260.57 2360.3
-759.79 1262.24 2363.4
-734.18 1281.70 2399.9
-612.81 1249.89 2340.3
-597.24 1230.31 2303.6
-569.46 1289.10 2413.7
-563.86 1290.61 2416.5
-507.44 1290.52 2416.4
-501.02 1290.12 2415.6
-418.92 1288.02 2411.7
-378.98 1279.83 2396.3
-374.24 1284.89 2405.8
-343.70 1242.14 2325.8
-324.59 1215.74 2276.4
-297.67 1251.41 2343.1
-253.88 1307.49 2448.1
-223.08 1312.99 2458.4
-129.08 1266.26 2370.9
-118.02 1215.57 2276.0
-63.79 1314.02 2460.4
-55.95 1280.64 2397.9
-47.94 1234.54 2311.5
-36.08 1238.87 2319.7
6.46 1331.79 2493.6
19.33 1327.52 2485.6
24.97 1286.04 2408.0
30.92 1273.76 2385.0
36.82 1264.30 2367.3
43.73 1286.87 2409.5
138.38 1295.76 2426.2
149.50 1283.22 2402.7
243.19 1318.34 2468.5
246.07 1299.78 2433.7
258.16 1329.54 2489.4
261.11 1311.90 2456.4
296.99 1301.68 2437.3
291.23 1249.85 2340.2
341.03 1351.01 2529.6
344.13 1337.55 2504.4
347.09 1324.09 2479.2
357.29 1338.21 2505.7
401.36 1355.41 2537.9
406.55 1350.79 2529.2
409.84 1340.10 2509.2
404.19 1300.97 2435.9
420.66 1333.16 2496.2
462.35 1360.63 2547.7
443.79 1287.60 2410.9
456.05 1304.80 2443.1
484.49 1330.73 2491.7
475.86 1289.84 2415.1
474.31 1252.66 2345.5
506.87 1321.70 2474.8
510.92 1315.61 2463.3
518.73 1319.24 2470.1
564.36 1277.57 2392.1
562.27 1259.00 2357.4
568.54 1259.34 2358.0
607.17 1330.60 2491.4
610.58 1323.99 2479.0
627.64 1319.32 2470.3
623.84 1272.38 2382.4
664.00 1341.02 2510.9
690.65 1354.99 2537.1
676.37 1314.45 2461.2
719.56 1359.90 2546.3
723.82 1355.51 2538.1
726.06 1347.47 2523.0
775.89 1377.88 2579.9
800.11 1385.06 2593.4
802.92 1378.35 2580.8
780.07 1328.05 2486.6
753.27 1271.91 2381.5
804.75 1347.79 2523.6
804.49 1325.79 2482.4
815.14 1332.69 2495.3
828.36 1343.64 2515.8
834.38 1322.18 2475.6
914.56 1375.17 2574.9
874.88 1305.99 2445.3
915.18 1356.31 2539.6
948.51 1376.00 2576.4
918.49 1323.14 2477.4
932.73 1334.32 2498.4
979.48 1391.54 2605.5
979.55 1382.10 2587.8
993.22 1391.87 2606.1
1023.09 1386.56 2596.2
1043.71 1396.13 2614.1
1003.63 1333.86 2497.5
980.14 1294.29 2423.4
988.75 1297.34 2429.1
1022.53 1333.17 2496.2
998.18 1293.23 2421.5
1022.96 1317.06 2466.1
1107.92 1391.65 2605.7
1124.07 1403.39 2627.7
1161.69 1407.70 2635.8
1153.42 1389.50 2601.7
1169.14 1400.25 2621.8
1128.30 1343.53 2515.6
1097.70 1299.58 2433.3
1105.58 1294.03 2422.9
1183.40 1377.29 2578.8
1151.29 1324.95 2480.8
1156.93 1316.73 2465.4
1168.91 1323.05 2477.3
1200.63 1351.53 2530.6
1201.91 1316.99 2465.9
1281.62 1389.54 2601.8
1259.27 1358.16 2543.0
1317.06 1413.10 2645.9
1311.54 1371.46 2567.9
1252.31 1302.91 2439.6
1277.02 1321.94 2475.2
1324.34 1364.07 2554.1
1323.12 1356.04 2539.0
1309.68 1335.61 2500.8
1331.86 1351.54 2530.6
1330.91 1343.96 2516.4
1307.39 1313.77 2459.9
1361.20 1361.20 2548.7
1432.06 1425.14 2668.4
1397.33 1383.89 2591.2
1365.28 1345.69 2519.7
1377.52 1351.28 2530.1
1398.49 1365.35 2556.5
1434.39 1393.80 2609.7
1459.13 1411.18 2642.3
1373.23 1321.90 2475.1
1435.82 1369.34 2564.0
1499.77 1404.33 2629.5
1503.85 1401.78 2624.7
1497.04 1389.15 2601.0
1476.05 1363.52 2553.1
1517.76 1395.80 2613.5
1527.70 1398.69 2618.9
1500.46 1367.68 2560.8
1526.89 1385.63 2594.5
1517.38 1370.97 2567.0
1504.05 1352.99 2533.3
1571.58 1407.59 2635.6
1574.12 1403.76 2628.4
1545.70 1372.47 2569.8
1556.06 1375.74 2575.9
1515.96 1334.56 2498.8
1547.50 1356.53 2540.0
1613.86 1391.03 2604.6
1541.11 1322.78 2476.8
1592.89 1344.82 2518.0
1620.35 1362.41 2551.0
1673.42 1401.32 2623.8
1703.17 1420.46 2659.7
1696.06 1408.83 2637.9
1743.29 1442.24 2700.4
1733.68 1428.55 2674.8
1703.55 1398.13 2617.9
1729.62 1413.90 2647.4
1770.90 1419.48 2657.8
1693.18 1351.92 2531.3
1762.26 1401.64 2624.4
1829.12 1449.23 2713.5
1830.21 1444.54 2704.8
1784.49 1403.08 2627.1
1731.26 1356.04 2539.1
1708.76 1328.32 2487.1
1719.19 1331.40 2492.9
1745.32 1341.55 2511.9
1897.80 1453.33 2721.2
1879.03 1428.34 2674.4
1831.74 1387.28 2597.5
1787.87 1349.09 2526.0
1829.21 1370.24 2565.6
1898.17 1406.55 2633.6
1884.19 1391.20 2604.9
1911.64 1406.42 2633.4
1952.15 1431.11 2679.6
1959.79 1401.80 2624.7
2038.96 1453.38 2721.3
1994.12 1416.52 2652.3
1967.31 1392.67 2607.6
1928.68 1360.64 2547.7
1991.13 1399.91 2621.2
2061.75 1434.87 2686.6
2065.96 1432.95 2683.1
2110.13 1458.68 2731.2
2098.59 1445.85 2707.2
2137.31 1467.62 2748.0
2068.61 1406.38 2633.3
2138.00 1439.31 2695.0
2174.86 1459.35 2732.5
2049.98 1357.87 2542.5
2181.94 1426.92 2671.8
2269.09 1474.55 2761.0
2222.61 1439.80 2695.9
2220.10 1433.67 2684.4
-1830.83 1172.88 2206.8
-1561.89 1160.10 2182.8
-1573.82 1173.21 2207.4
-1621.26 1212.99 2282.3
-1597.40 1199.51 2256.9
-1608.51 1212.30 2281.0
-1480.20 1223.55 2302.2
-1434.03 1224.90 2304.7
-1319.11 1240.45 2334.0
-1280.45 1209.64 2276.0
-1007.56 1200.87 2259.5
-1003.94 1203.55 2264.5
-1036.20 1249.54 2351.0
-926.90 1258.38 2367.7
-890.23 1216.65 2289.2
-895.25 1231.72 2317.5
-882.67 1265.36 2380.8
-805.91 1251.61 2354.9
-800.31 1252.40 2356.4
-679.61 1278.17 2404.9
-599.24 1216.29 2288.5
-591.60 1212.78 2281.9
-571.27 1286.92 2421.4
-541.43 1233.27 2320.4
-543.05 1250.84 2353.5
-541.86 1291.63 2430.2
-525.66 1267.77 2385.4
-449.01 1260.93 2372.5
-432.94 1232.68 2319.3
-432.86 1249.81 2351.6
-414.36 1267.81 2385.4
-408.31 1268.24 2386.2
-412.71 1301.63 2449.1
-336.60 1232.19 2318.4
-337.05 1256.29 2363.8
-253.42 1298.79 2443.7
-236.02 1240.63 2334.3
-233.92 1261.91 2374.3
-218.53 1279.94 2408.3
-213.56 1287.66 2422.8
-118.37 1213.32 2282.9
-121.63 1312.37 2469.3
-18.96 1295.75 2438.0
18.61 1271.81 2393.0
24.98 1280.24 2408.8
32.04 1313.53 2471.4
61.38 1258.37 2367.7
68.25 1271.91 2393.1
74.86 1278.87 2406.2
182.95 1339.49 2520.3
182.64 1291.06 2429.2
186.44 1274.00 2397.1
200.91 1328.57 2499.8
245.18 1322.70 2488.7
305.74 1305.75 2456.8
346.54 1340.39 2522.0
352.12 1336.76 2515.2
408.96 1309.95 2464.7
419.33 1322.51 2488.4
467.84 1350.79 2541.6
450.02 1281.30 2410.8
452.14 1269.72 2389.0
472.03 1307.65 2460.4
474.84 1297.90 2442.0
482.87 1302.49 2450.7
487.65 1298.29 2442.8
502.93 1321.80 2487.0
527.48 1351.67 2543.2
520.36 1316.97 2477.9
542.81 1357.02 2553.3
550.13 1358.76 2556.5
567.87 1293.48 2433.7
591.71 1318.48 2480.8
595.02 1270.62 2390.7
623.69 1318.11 2480.1
628.08 1274.81 2398.6
659.90 1326.27 2495.4
678.42 1350.26 2540.6
661.25 1278.84 2406.2
711.87 1363.87 2566.2
727.07 1367.42 2572.8
772.82 1365.77 2569.7
776.46 1360.46 2559.7
778.21 1351.97 2543.8
790.40 1361.60 2561.9
781.74 1335.47 2512.7
774.65 1291.09 2429.2
823.32 1328.98 2500.5
809.60 1296.63 2439.7
837.52 1330.94 2504.2
868.87 1370.14 2578.0
889.80 1381.89 2600.1
838.30 1292.12 2431.2
831.75 1272.45 2394.2
891.45 1353.68 2547.0
933.58 1386.84 2609.4
951.96 1393.95 2622.8
907.44 1319.32 2482.4
980.60 1395.99 2626.6
979.80 1385.24 2606.4
983.98 1381.62 2599.6
997.37 1390.90 2617.0
1009.94 1362.09 2562.8
993.05 1330.56 2503.5
978.21 1302.17 2450.1
990.16 1301.17 2448.2
1046.67 1349.48 2539.1
1052.48 1348.49 2537.2
1085.62 1340.68 2522.5
1054.55 1294.50 2435.7
1141.74 1376.81 2590.5
1161.79 1392.78 2620.6
1171.26 1379.93 2596.4
1143.96 1340.07 2521.4
1107.35 1289.82 2426.8
1129.66 1308.36 2461.7
1222.31 1407.72 2648.7
1199.75 1374.02 2585.3
1168.53 1330.82 2504.0
1215.80 1377.01 2590.9
1164.60 1311.77 2468.1
1176.25 1310.50 2465.7
1216.39 1347.89 2536.1
1272.49 1402.48 2638.8
1264.90 1386.65 2609.0
1203.80 1298.84 2443.8
1266.41 1359.24 2557.5
1276.80 1363.25 2565.0
1307.83 1389.15 2613.7
1305.12 1365.05 2568.4
1290.59 1329.51 2501.5
1355.49 1389.38 2614.2
1363.59 1390.73 2616.7
1393.53 1414.22 2660.9
1415.87 1422.81 2677.1
1355.71 1355.71 2550.8
1414.44 1407.57 2648.4
1437.69 1410.18 2653.3
1395.19 1361.97 2562.6
1371.44 1332.44 2507.0
1460.97 1412.73 2658.1
1459.30 1378.61 2593.9
1455.76 1368.95 2575.7
1462.00 1368.53 2574.9
1493.86 1392.01 2619.1
1488.35 1374.38 2585.9
1469.78 1345.11 2530.9
1507.02 1373.06 2583.5
1467.27 1330.93 2504.2
1482.53 1338.85 2519.1
1578.36 1419.14 2670.2
1519.81 1348.75 2537.7
1513.69 1337.53 2516.6
1546.07 1360.28 2559.4
1580.50 1384.63 2605.2
1603.34 1386.85 2609.4
1642.52 1414.78 2662.0
1606.56 1378.01 2592.8
1594.39 1361.87 2562.4
1576.78 1341.24 2523.6
1603.31 1352.59 2544.9
1664.49 1387.07 2609.8
1749.99 1434.99 2700.0
1766.74 1431.55 2693.5
1725.15 1376.10 2589.2
1699.40 1345.08 2530.8
1782.50 1405.43 2644.4
1800.38 1414.09 2660.7
1760.19 1377.25 2591.3
1711.99 1334.44 2510.8
1714.18 1331.08 2504.5
1763.53 1364.24 2566.9
1800.12 1387.31 2610.3
1803.48 1384.69 2605.3
1848.13 1403.21 2640.2
1857.82 1405.37 2644.2
1825.24 1375.64 2588.3
1794.56 1347.56 2535.5
1830.09 1364.25 2566.9
1962.51 1457.66 2742.6
1967.58 1456.15 2739.8
1948.48 1436.83 2703.4
1994.91 1465.79 2757.9
1998.90 1463.48 2753.6
1911.20 1369.92 2577.5
1943.33 1388.09 2611.7
2022.36 1439.53 2708.5
1994.69 1414.92 2662.2
1922.60 1359.08 2557.2
1999.02 1403.42 2640.6
2110.95 1461.98 2750.8
2108.03 1445.31 2719.4
2075.46 1418.23 2668.5
2119.31 1443.38 2715.8
2054.16 1385.21 2606.3
2029.51 1364.09 2566.6
2180.01 1450.98 2730.1
2202.06 1460.91 2748.8
2205.06 1458.19 2743.6
2140.19 1410.73 2654.3
2141.26 1406.92 2647.2
2183.66 1430.19 2690.9
2178.92 1422.54 2676.6
2158.84 1391.71 2618.5
-1732.44 1193.98 2257.5
-1677.16 1192.13 2254.0
-1643.28 1219.01 2304.9
-1628.36 1212.35 2292.3
-1551.55 1208.07 2284.2
-1500.37 1219.43 2305.6
-1505.32 1228.34 2322.5
-1213.27 1225.29 2316.7
-1218.36 1236.55 2338.0
-1181.99 1249.35 2362.2
-1122.89 1193.07 2255.8
-1138.03 1215.49 2298.2
-1026.10 1217.00 2301.1
-1054.50 1258.00 2378.6
-1029.42 1250.01 2363.5
-904.85 1247.23 2358.2
-856.66 1239.42 2343.4
-841.38 1226.01 2318.1
-816.55 1261.94 2386.0
-787.59 1226.47 2319.0
-672.98 1271.18 2403.5
-637.51 1287.65 2434.6
-537.77 1275.65 2411.9
-538.44 1292.26 2443.4
-443.98 1257.93 2378.4
-431.71 1240.40 2345.3
-434.97 1267.62 2396.8
-433.93 1301.78 2461.3
-425.11 1294.37 2447.3
-144.81 1284.38 2428.5
-139.08 1289.67 2438.5
-58.17 1318.61 2493.2
-52.04 1327.09 2509.2
-18.84 1280.99 2422.0
18.53 1259.95 2382.3
24.16 1232.35 2330.1
32.62 1330.96 2516.5
70.39 1305.39 2468.2
73.95 1257.17 2377.0
80.14 1257.56 2377.7
88.70 1292.51 2443.8
162.22 1323.73 2502.9
167.68 1315.62 2487.5
176.82 1335.97 2526.0
181.55 1322.72 2500.9
189.66 1334.18 2522.6
286.94 1330.38 2515.4
288.17 1306.35 2470.0
300.16 1331.15 2516.9
323.63 1347.36 2547.5
327.30 1335.40 2524.9
376.85 1325.47 2506.1
379.88 1313.48 2483.5
381.57 1297.33 2452.9
394.73 1320.08 2496.0
425.96 1336.87 2527.7
480.61 1361.72 2574.7
464.33 1297.59 2453.4
466.34 1285.58 2430.7
476.52 1296.14 2450.7
494.02 1326.05 2507.2
509.36 1349.47 2551.5
530.76 1336.73 2527.4
550.02 1368.34 2587.2
566.84 1284.83 2429.3
595.41 1320.25 2496.3
639.09 1344.06 2541.3
611.61 1273.15 2407.2
636.36 1311.28 2479.3
657.61 1315.23 2486.8
644.42 1276.33 2413.2
671.44 1317.06 2490.2
696.27 1352.74 2557.7
697.34 1342.04 2537.5
714.74 1362.67 2576.5
716.23 1352.87 2558.0
725.14 1357.14 2566.0
737.16 1342.69 2538.7
762.52 1352.65 2557.5
774.63 1362.28 2575.7
763.25 1330.79 2516.2
752.10 1300.24 2458.4
795.66 1363.98 2579.0
806.75 1360.13 2571.7
781.70 1307.10 2471.4
796.05 1320.27 2496.3
851.01 1315.20 2486.7
860.41 1319.73 2495.3
909.76 1374.75 2599.3
928.63 1382.78 2614.5
875.69 1294.50 2447.6
943.37 1384.52 2617.8
895.71 1295.92 2450.3
923.74 1327.06 2509.2
988.64 1390.91 2629.9
983.66 1374.43 2598.7
972.16 1349.12 2550.8
988.69 1362.79 2576.7
1005.21 1322.99 2501.5
1031.84 1349.33 2551.2
1080.35 1403.77 2654.2
1045.24 1349.55 2551.7
1053.48 1351.64 2555.6
1096.95 1348.06 2548.9
1150.69 1389.00 2626.3
1162.14 1386.41 2621.4
1174.99 1393.59 2634.9
1133.33 1306.21 2469.7
1162.14 1324.45 2504.2
1219.94 1382.60 2614.2
1209.93 1356.19 2564.2
1209.34 1326.37 2507.8
1263.29 1378.13 2605.7
1222.69 1326.75 2508.6
1199.95 1295.18 2448.9
1269.56 1363.11 2577.3
1316.48 1406.08 2658.6
1314.60 1396.76 2640.9
1287.97 1361.38 2574.0
1282.17 1348.26 2549.2
1329.70 1391.08 2630.2
1334.56 1389.03 2626.3
1294.55 1340.54 2534.6
1326.86 1367.06 2584.8
1385.10 1419.91 2684.7
1429.61 1422.64 2689.9
1477.11 1428.11 2700.2
1476.22 1420.52 2685.8
1495.01 1431.84 2707.3
1472.05 1403.26 2653.2
1492.61 1416.25 2677.8
1428.54 1349.18 2551.0
1431.17 1345.43 2543.9
1504.39 1407.77 2661.8
1477.15 1375.98 2601.6
1473.08 1365.95 2582.7
1529.98 1405.93 2658.3
1437.61 1315.12 2486.6
1492.95 1359.65 2570.8
1498.21 1358.38 2568.4
1470.40 1321.42 2498.5
1600.99 1432.47 2708.4
1563.03 1386.34 2621.2
1529.98 1351.15 2554.7
1598.52 1405.60 2657.6
1633.09 1429.83 2703.5
1641.77 1419.16 2683.3
1544.47 1318.29 2492.6
1590.88 1352.25 2556.8
1676.22 1418.88 2682.8
1711.62 1442.85 2728.1
1673.71 1405.09 2656.7
1686.28 1409.84 2665.7
1674.68 1388.76 2625.8
1721.08 1404.40 2655.4
1755.92 1421.46 2687.6
1730.03 1394.97 2637.5
1774.89 1425.50 2695.3
1736.71 1389.37 2627.0
1692.18 1348.46 2549.6
1704.32 1342.40 2538.1
1759.85 1380.81 2610.8
1826.95 1427.96 2699.9
1843.94 1435.74 2714.6
1815.55 1408.26 2662.7
1836.66 1419.23 2683.4
1869.25 1438.97 2720.7
1890.01 1449.48 2740.6
1891.97 1440.16 2723.0
1813.12 1375.01 2599.8
1834.84 1386.32 2621.2
1842.91 1387.28 2623.0
1801.26 1350.94 2554.3
1904.67 1423.27 2691.1
1917.34 1422.31 2689.2
1899.87 1404.25 2655.1
1923.00 1416.21 2677.7
1932.77 1418.29 2681.6
1931.25 1412.09 2669.9
1891.33 1377.97 2605.4
1962.64 1404.84 2656.2
1972.09 1396.90 2641.2
1975.20 1394.26 2636.2
1920.72 1351.12 2554.6
2046.67 1429.86 2703.5
2118.12 1459.78 2760.1
2122.45 1457.84 2756.4
2108.15 1443.16 2728.7
2103.36 1435.07 2713.4
2102.47 1429.68 2703.2
2142.99 1452.39 2746.1
2155.11 1446.19 2734.4
2047.01 1369.15 2588.7
2147.97 1431.98 2707.5
2214.82 1471.74 2782.7
2140.63 1417.82 2680.8
2196.70 1450.25 2742.1
2236.75 1471.93 2783.1
2233.41 1465.01 2770.0
2254.06 1464.42 2768.9
2167.47 1403.69 2654.0
2140.90 1382.10 2613.2
2261.71 1455.49 2752.0
2199.23 1410.83 2667.5
-1639.82 1188.87 2258.9
-1650.22 1200.70 2281.4
-1532.32 1182.74 2247.3
-1545.04 1197.11 2274.6
-1510.51 1226.54 2330.5
-1187.43 1193.31 2267.4
-1183.84 1195.62 2271.8
-1165.22 1182.70 2247.2
-1154.17 1177.37 2237.1
-1201.06 1231.39 2339.7
-1116.24 1180.19 2242.4
-1108.95 1178.63 2239.5
-1161.62 1241.10 2358.2
-1075.55 1254.80 2384.2
-1035.90 1215.53 2309.6
-1024.48 1209.12 2297.4
-1037.93 1254.17 2383.0
-929.05 1186.15 2253.8
-951.15 1222.05 2322.0
-938.82 1229.55 2336.2
-924.79 1259.95 2394.0
-901.54 1236.57 2349.6
-866.66 1256.66 2387.7
-538.33 1270.71 2414.4
-540.15 1290.00 2451.1
-508.72 1290.87 2452.7
-493.65 1268.48 2410.2
-431.45 1288.01 2447.3
-414.77 1256.69 2387.8
-406.62 1289.76 2450.6
-403.12 1298.94 2468.1
-364.24 1297.20 2464.8
-359.74 1304.05 2477.8
-308.44 1277.84 2428.0
-304.31 1286.96 2445.3
-289.46 1250.23 2375.5
-293.45 1295.00 2460.6
-213.35 1312.41 2493.7
-202.38 1283.83 2439.4
-198.57 1300.30 2470.7
-116.02 1239.54 2355.2
-110.99 1251.75 2378.4
-106.08 1266.76 2406.9
-100.04 1269.20 2411.6
-97.61 1320.97 2509.9
-90.88 1317.81 2503.9
-82.43 1287.18 2445.7
-71.15 1312.95 2494.7
-62.82 1275.31 2423.2
-57.16 1289.34 2449.8
-51.71 1312.21 2493.3
12.88 1307.30 2484.0
18.55 1255.12 2384.8
25.30 1283.97 2439.6
72.10 1330.64 2528.3
75.38 1275.16 2422.9
81.54 1273.21 2419.2
89.60 1299.19 2468.6
136.48 1319.29 2506.7
135.35 1248.90 2373.0
142.85 1260.85 2395.7
170.00 1327.31 2522.0
170.52 1282.03 2436.0
178.86 1296.72 2463.9
191.06 1337.42 2541.2
274.70 1296.83 2464.1
269.97 1245.56 2366.7
274.30 1237.40 2351.1
292.19 1289.44 2450.0
311.76 1346.55 2558.5
326.51 1325.63 2518.8
337.72 1344.25 2554.2
383.31 1341.59 2549.1
393.43 1353.65 2572.0
386.20 1306.63 2482.7
390.99 1301.15 2472.3
411.35 1346.85 2559.1
493.10 1352.69 2570.2
493.47 1335.65 2537.8
500.54 1336.97 2540.3
505.36 1332.32 2531.5
520.36 1354.26 2573.2
530.56 1363.34 2590.4
562.16 1342.57 2551.0
578.59 1365.75 2595.0
596.94 1346.44 2558.3
600.03 1338.53 2543.3
604.90 1334.72 2536.1
586.15 1279.44 2431.0
587.54 1268.83 2410.9
616.72 1317.82 2504.0
647.21 1368.59 2600.4
629.96 1318.37 2505.0
638.12 1321.82 2511.5
659.83 1326.20 2519.9
667.85 1329.15 2525.5
688.12 1317.81 2503.9
665.15 1261.93 2397.8
691.21 1299.23 2468.6
728.29 1356.36 2577.2
741.92 1369.17 2601.5
696.67 1274.10 2420.9
731.53 1314.17 2497.0
768.21 1367.95 2599.2
764.56 1349.62 2564.4
772.83 1352.45 2569.8
759.08 1317.04 2502.5
769.31 1323.48 2514.7
871.24 1371.02 2605.0
866.87 1284.48 2440.6
1001.21 1382.63 2627.1
974.53 1336.68 2539.8
978.16 1332.66 2532.2
1027.64 1390.74 2642.5
1033.76 1389.75 2640.6
1036.57 1384.37 2630.4
1042.37 1374.04 2610.8
994.40 1294.00 2458.7
1053.59 1362.29 2588.4
1034.99 1329.76 2526.6
1063.05 1357.22 2578.8
1084.45 1375.89 2614.3
1083.14 1365.69 2594.9
1096.71 1374.28 2611.2
1127.95 1396.18 2652.8
1092.90 1344.60 2554.8
1103.39 1333.26 2533.3
1158.40 1383.27 2628.3
1163.23 1372.88 2608.6
1157.64 1358.39 2581.0
1188.62 1386.73 2634.9
1185.92 1360.12 2584.3
1139.49 1299.53 2469.2
1181.44 1339.85 2545.8
1216.85 1372.34 2607.5
1239.50 1390.15 2641.4
1247.26 1391.17 2643.3
1210.89 1343.23 2552.2
1188.51 1311.23 2491.4
1197.50 1314.01 2496.7
1268.13 1384.03 2629.8
1288.35 1391.14 2643.3
1247.58 1339.99 2546.1
1259.12 1345.27 2556.1
1250.23 1328.78 2524.8
1297.24 1371.56 2606.1
1325.56 1394.24 2649.2
1295.92 1356.04 2576.6
1316.19 1370.19 2603.5
1364.46 1413.19 2685.2
1368.59 1410.28 2679.6
1330.78 1350.75 2566.5
1387.45 1373.92 2610.5
1388.29 1368.07 2599.4
1388.64 1361.81 2587.5
1445.79 1411.04 2681.1
1458.26 1396.35 2653.2
1401.90 1336.09 2538.7
1443.10 1349.99 2565.1
1521.33 1416.65 2691.7
1504.01 1394.13 2648.9
1477.27 1350.84 2566.7
1524.00 1387.32 2636.0
1528.49 1385.20 2632.0
1465.54 1322.24 2512.4
1460.09 1311.49 2491.9
1601.90 1432.53 2721.9
1579.01 1399.74 2659.6
1576.94 1391.82 2644.6
1619.76 1423.43 2704.6
1664.55 1431.80 2720.5
1607.90 1377.23 2616.8
1668.84 1399.90 2659.9
1715.99 1427.65 2712.6
1712.03 1418.54 2695.3
1730.60 1428.10 2713.5
1686.13 1385.77 2633.1
1649.75 1350.40 2565.9
1655.27 1349.47 2564.1
1729.91 1388.03 2637.4
1776.31 1419.65 2697.4
1743.14 1387.68 2636.7
1688.47 1338.90 2544.0
1714.35 1343.68 2553.1
1779.69 1389.52 2640.2
1852.03 1440.46 2737.0
1869.16 1442.73 2741.3
1888.86 1452.42 2759.7
1935.78 1455.42 2765.4
1864.40 1396.58 2653.6
1819.06 1357.60 2579.5
1907.73 1418.57 2695.4
1910.41 1405.12 2669.8
1880.48 1378.11 2618.5
1884.77 1376.29 2615.0
1879.88 1367.80 2598.9
1909.51 1384.40 2630.5
2003.43 1437.09 2730.6
1975.65 1412.17 2683.2
1909.93 1360.41 2584.9
2025.98 1433.01 2722.8
2083.27 1468.41 2790.1
2038.01 1431.54 2720.0
2086.10 1460.27 2774.6
2098.27 1458.73 2771.7
2093.18 1450.22 2755.5
2140.54 1472.99 2798.8
2080.34 1426.72 2710.9
2051.36 1402.11 2664.1
2075.26 1413.68 2686.1
2096.97 1423.69 2705.1
2125.54 1438.28 2732.8
2131.33 1427.92 2713.2
2092.02 1396.97 2654.3
2116.71 1408.83 2676.9
2040.34 1353.56 2571.9
2207.05 1445.26 2746.1
2263.74 1468.18 2789.6
2204.03 1415.88 2690.3
2160.95 1383.83 2629.4
2219.04 1416.56 2691.6
2222.40 1414.26 2687.2
-1763.30 1195.26 2282.3
-1366.19 1237.54 2363.1
-1352.25 1230.43 2349.5
-1332.47 1217.92 2325.6
-1255.66 1219.44 2328.5
-1245.59 1215.50 2321.0
-1257.04 1238.65 2365.2
-1226.14 1214.11 2318.3
-1188.79 1200.67 2292.7
-1178.05 1195.81 2283.4
-1183.01 1219.22 2328.1
-1182.07 1224.50 2338.2
-1174.22 1241.85 2371.3
-1153.06 1225.89 2340.8
-1076.82 1215.18 2320.4
-1008.42 1177.46 2248.3
-1026.11 1212.13 2314.5
-943.65 1198.85 2289.2
-984.45 1258.61 2403.3
-921.94 1201.49 2294.2
-935.99 1227.73 2344.3
-927.92 1241.33 2370.3
-869.99 1171.59 2237.1
-870.63 1180.32 2253.8
-906.91 1237.81 2363.6
-832.08 1273.33 2431.4
-772.91 1249.02 2385.0
-770.75 1255.58 2397.5
-657.58 1265.07 2415.6
-610.77 1186.31 2265.2
-551.92 1266.90 2419.1
-519.24 1294.89 2472.6
-487.38 1230.63 2349.9
-492.01 1258.06 2402.2
-430.11 1296.74 2476.1
-403.11 1292.51 2468.0
-397.97 1296.60 2475.8
-382.66 1267.15 2419.6
-365.44 1230.32 2349.3
-353.28 1297.52 2477.6
-336.74 1259.67 2405.3
-317.49 1308.84 2499.2
-295.20 1242.31 2372.2
-294.81 1267.06 2419.4
-274.99 1291.80 2466.7
-268.27 1290.24 2463.7
-234.18 1314.02 2509.1
-210.25 1213.45 2317.0
-201.86 1235.62 2359.4
-199.44 1258.97 2404.0
-198.64 1294.35 2471.5
-116.66 1240.31 2368.3
-108.84 1221.42 2332.3
-107.72 1279.94 2444.0
-84.01 1305.39 2492.6
6.59 1331.49 2542.4
19.18 1291.56 2466.2
51.38 1297.40 2477.4
57.74 1295.95 2474.6
65.69 1326.96 2533.8
131.55 1328.70 2537.1
137.73 1324.85 2529.8
142.91 1312.19 2505.6
167.67 1254.39 2395.2
182.16 1226.52 2342.0
200.48 1306.38 2494.5
239.37 1306.83 2495.4
232.23 1234.47 2357.2
242.66 1256.87 2400.0
261.73 1321.75 2523.8
287.47 1350.44 2578.6
269.25 1236.12 2360.3
275.62 1237.22 2362.4
296.17 1300.59 2483.4
300.18 1290.13 2463.5
303.42 1276.90 2438.2
353.68 1347.98 2573.9
372.80 1321.14 2522.7
384.37 1338.69 2556.2
463.92 1358.15 2593.4
455.24 1313.69 2508.5
496.02 1335.94 2550.9
485.24 1289.72 2462.7
510.24 1338.55 2555.9
557.18 1324.12 2528.4
582.23 1336.48 2552.0
613.79 1347.66 2573.3
601.16 1305.75 2493.3
609.03 1308.76 2499.0
625.66 1330.35 2540.3
640.55 1347.83 2573.6
658.65 1371.63 2619.1
668.62 1350.61 2579.0
667.96 1335.92 2550.9
680.06 1295.96 2474.6
671.79 1268.24 2421.7
713.82 1335.10 2549.4
740.20 1371.74 2619.3
744.87 1367.84 2611.9
751.23 1367.10 2610.4
786.01 1380.64 2636.3
770.22 1329.78 2539.2
763.01 1306.18 2494.1
796.19 1351.51 2580.7
785.93 1322.99 2526.2
798.17 1332.49 2544.4
805.27 1311.80 2504.9
793.05 1281.58 2447.1
835.60 1339.62 2558.0
868.68 1360.26 2597.4
887.17 1378.53 2632.3
909.25 1391.43 2656.9
941.24 1387.82 2650.0
980.10 1394.22 2662.2
978.84 1382.70 2640.2
982.19 1377.79 2630.9
1006.62 1364.67 2605.8
984.97 1326.43 2532.8
1036.38 1386.41 2647.3
982.34 1288.53 2460.4
1011.53 1309.81 2501.0
1100.46 1355.44 2588.2
1063.80 1302.35 2486.8
1128.92 1373.75 2623.1
1129.31 1349.82 2577.5
1166.88 1370.40 2616.7
1120.67 1308.53 2498.6
1111.05 1289.84 2462.9
1148.97 1311.26 2503.8
1272.69 1412.54 2697.2
1233.69 1361.77 2600.3
1204.77 1322.62 2525.5
1256.46 1371.92 2619.6
1284.53 1372.89 2621.5
1281.05 1361.95 2600.6
1244.92 1316.62 2514.1
1256.84 1322.30 2524.9
1329.99 1392.01 2658.0
1351.61 1407.35 2687.3
1304.41 1317.45 2515.6
1411.64 1418.66 2708.9
1406.90 1406.90 2686.4
1418.75 1404.84 2682.5
1369.07 1349.04 2576.0
1400.19 1373.00 2621.7
1364.52 1331.56 2542.6
1382.39 1342.51 2563.5
1478.67 1429.14 2728.9
1464.84 1402.36 2677.8
1421.87 1354.80 2587.0
1382.02 1310.65 2502.6
1398.55 1307.90 2497.4
1488.49 1385.60 2645.8
1552.02 1431.54 2733.5
1464.77 1344.92 2568.1
1447.64 1317.22 2515.2
1493.38 1352.75 2583.0
1506.00 1358.08 2593.2
1517.73 1362.59 2601.8
1586.16 1417.72 2707.1
1591.16 1409.71 2691.8
1521.22 1341.86 2562.3
1504.93 1321.72 2523.8
1582.68 1383.99 2642.7
1647.07 1397.93 2669.3
1613.90 1364.05 2604.6
1599.77 1346.47 2571.1
1618.22 1350.75 2579.2
1745.78 1439.38 2748.5
1664.61 1366.88 2610.0
1674.17 1369.16 2614.4
1685.73 1373.05 2621.8
1692.84 1373.31 2622.3
1653.64 1336.14 2551.3
1708.56 1348.16 2574.3
1734.35 1363.19 2603.0
1808.68 1416.10 2704.0
1762.74 1374.80 2625.1
1732.38 1345.93 2570.0
1845.77 1428.53 2727.7
1930.95 1444.64 2758.5
1905.99 1420.70 2712.8
1916.88 1423.56 2718.3
1911.32 1414.23 2700.4
1955.75 1441.83 2753.1
1941.09 1425.82 2722.6
1890.99 1383.98 2642.7
1909.29 1392.33 2658.6
1962.62 1426.08 2723.1
1974.64 1429.67 2729.9
2014.27 1453.15 2774.8
2032.36 1460.99 2789.7
1899.93 1360.94 2598.7
1950.79 1382.67 2640.2
2048.92 1432.12 2734.6
2081.00 1449.52 2767.8
2112.63 1466.50 2800.2
2059.16 1424.49 2720.0
1989.20 1371.40 2618.6
1973.16 1355.71 2588.7
2150.52 1472.56 2811.8
2117.10 1439.91 2749.5
2019.24 1364.17 2604.8
2060.13 1387.15 2648.7
2106.29 1413.52 2699.1
2082.52 1392.95 2659.8
2036.33 1357.56 2592.2
2068.33 1374.35 2624.3
2115.36 1400.99 2675.2
2145.99 1407.44 2687.5
2231.65 1458.88 2785.7
2190.08 1417.93 2707.5
2258.91 1457.83 2783.7
2302.49 1471.84 2810.5
2238.39 1426.35 2723.6
2293.13 1456.64 2781.4
2182.58 1382.07 2639.0
-1671.63 1178.94 2262.4
-1523.65 1182.45 2269.1
-1554.51 1211.07 2324.0
-1515.99 1209.18 2320.4
-1451.69 1231.18 2362.6
-1389.73 1183.63 2271.4
-1398.49 1196.15 2295.4
-1406.67 1208.29 2318.7
-1430.33 1233.89 2367.8
-1408.95 1231.30 2362.8
-1392.97 1222.65 2346.2
-1369.45 1228.83 2358.1
-1358.68 1224.64 2350.1
-1285.91 1236.69 2373.2
-1250.28 1208.20 2318.5
-1265.14 1228.47 2357.4
-1261.87 1231.24 2362.7
-1206.55 1183.01 2270.2
-1211.92 1194.10 2291.4
-1060.14 1197.13 2297.3
-1040.71 1181.82 2267.9
-1099.43 1255.60 2409.5
-1045.94 1215.22 2332.0
-1011.32 1188.75 2281.2
-1029.42 1246.47 2391.9
-1006.27 1225.82 2352.3
-976.13 1249.70 2398.1
-964.10 1250.22 2399.1
-943.22 1231.08 2362.4
-855.03 1210.29 2322.5
-840.03 1197.49 2297.9
-833.47 1269.15 2435.5
-780.77 1245.52 2390.1
-727.27 1169.45 2244.1
-742.18 1203.05 2308.6
-719.55 1236.15 2372.1
-704.79 1221.23 2343.5
-687.36 1201.38 2305.4
-677.20 1194.01 2291.3
-709.61 1262.22 2422.2
-607.67 1174.43 2253.7
-621.95 1213.72 2329.1
-597.82 1278.31 2453.0
-499.82 1240.29 2380.1
-488.60 1227.62 2355.8
-481.24 1289.71 2474.9
-389.58 1283.71 2463.4
-372.11 1246.57 2392.1
-343.01 1276.76 2450.1
-284.13 1297.96 2490.8
-260.22 1216.40 2334.2
-249.36 1222.46 2345.9
-260.82 1310.61 2515.0
-230.04 1249.70 2398.1
-220.41 1230.60 2361.5
-207.75 1265.37 2428.2
-204.79 1286.32 2468.4
-161.65 1299.67 2494.0
-143.87 1314.46 2522.4
-118.10 1249.33 2397.4
-111.44 1244.37 2387.9
-111.11 1313.75 2521.1
-32.24 1296.18 2487.3
-25.08 1260.17 2418.2
-19.51 1306.87 2507.8
25.78 1295.29 2485.6
31.81 1278.62 2453.7
39.81 1333.58 2559.1
45.88 1317.36 2528.0
51.66 1297.90 2490.6
85.12 1316.02 2525.4
133.21 1338.76 2569.0
136.91 1310.46 2514.7
145.99 1333.85 2559.6
166.54 1239.81 2379.2
176.83 1225.62 2351.9
185.31 1241.56 2382.5
203.97 1322.49 2537.8
219.25 1335.41 2562.6
221.80 1311.22 2516.2
224.83 1291.17 2477.7
240.37 1342.05 2575.4
245.05 1331.20 2554.6
233.26 1233.80 2367.6
255.41 1283.46 2462.9
283.93 1297.04 2489.0
302.36 1350.52 2591.6
306.06 1337.33 2566.3
293.73 1256.15 2410.5
302.20 1265.48 2428.4
342.48 1323.81 2540.4
332.76 1261.98 2421.7
354.96 1321.25 2535.4
380.81 1319.71 2532.5
385.92 1314.73 2522.9
423.31 1350.57 2591.7
413.15 1297.55 2490.0
419.76 1298.03 2490.9
462.52 1347.35 2585.5
433.15 1243.76 2386.7
456.58 1292.56 2480.4
483.79 1296.54 2488.0
493.32 1304.69 2503.7
519.33 1321.33 2535.6
519.72 1305.79 2505.8
534.79 1327.06 2546.6
570.77 1365.77 2620.9
617.85 1364.69 2618.8
608.00 1328.34 2549.1
600.73 1298.35 2491.5
625.91 1338.39 2568.3
660.93 1341.90 2575.1
651.59 1309.70 2513.3
686.95 1367.11 2623.4
670.46 1295.79 2486.6
686.08 1288.81 2473.2
724.66 1348.66 2588.1
747.74 1378.87 2646.0
764.03 1301.45 2497.4
771.55 1292.35 2480.0
829.52 1377.96 2644.3
810.65 1324.73 2542.1
800.03 1296.82 2488.6
825.32 1327.12 2546.7
841.71 1342.73 2576.7
892.57 1390.74 2668.8
879.45 1359.76 2609.3
879.88 1350.05 2590.7
874.42 1331.50 2555.1
890.71 1346.11 2583.2
924.21 1386.32 2660.3
930.86 1355.82 2601.8
884.32 1278.77 2453.9
914.29 1312.67 2519.0
966.46 1377.72 2643.8
946.90 1340.33 2572.1
926.37 1302.10 2498.7
927.29 1285.41 2466.7
1014.18 1396.24 2679.4
1027.02 1385.44 2658.6
1010.69 1354.32 2598.9
1056.24 1387.60 2662.8
1037.01 1353.50 2597.3
1051.04 1362.96 2615.5
1050.64 1353.70 2597.7
1061.01 1358.36 2606.7
1099.05 1372.11 2633.0
1104.35 1370.22 2629.4
1081.21 1333.27 2558.5
1095.48 1342.63 2576.5
1120.83 1365.38 2620.1
1088.97 1318.57 2530.3
1112.61 1339.13 2569.8
1133.90 1356.63 2603.3
1130.35 1344.38 2579.8
1191.13 1408.33 2702.6
1185.85 1393.90 2674.9
1140.00 1332.21 2556.5
1115.78 1288.92 2473.4
1185.83 1346.62 2584.1
1224.08 1359.33 2608.5
1251.84 1382.52 2653.0
1266.99 1391.61 2670.5
1237.41 1351.74 2594.0
1299.86 1412.28 2710.1
1306.35 1374.74 2638.1
1285.82 1346.10 2583.1
1321.84 1376.63 2641.7
1292.52 1339.16 2569.8
1299.30 1339.28 2570.0
1306.35 1326.14 2544.8
1376.16 1383.04 2654.0
1316.30 1309.79 2513.4
1405.13 1384.46 2656.8
1455.77 1420.44 2725.8
1362.57 1310.42 2514.7
1411.78 1351.27 2593.1
1412.86 1345.90 2582.7
1476.54 1399.93 2686.4
1440.97 1353.44 2597.2
1410.49 1318.65 2530.4
1480.70 1377.87 2644.1
1557.39 1429.38 2743.0
1545.45 1411.98 2709.6
1553.75 1413.14 2711.8
1549.33 1402.77 2691.9
1555.77 1402.29 2691.0
1586.47 1423.57 2731.8
1581.96 1406.96 2699.9
1524.54 1349.92 2590.5
1539.09 1356.83 2603.7
1536.93 1349.01 2588.7
1549.28 1348.08 2586.9
1687.30 1424.99 2734.5
1681.19 1413.89 2713.2
1710.74 1432.75 2749.4
1682.76 1403.46 2693.2
1603.67 1326.49 2545.5
1727.00 1411.08 2707.8
1790.60 1451.26 2784.9
1784.12 1440.19 2763.7
1782.03 1432.76 2749.4
1730.90 1386.10 2659.9
1717.52 1369.93 2628.9
1693.96 1345.79 2582.5
1690.13 1327.02 2546.5
1781.00 1392.92 2673.0
1788.64 1382.76 2653.5
1834.86 1413.06 2711.6
1890.59 1450.42 2783.3
1907.26 1457.64 2797.2
1879.82 1420.46 2725.8
1830.02 1377.66 2643.7
1825.55 1369.16 2627.4
1850.47 1382.69 2653.4
1865.45 1388.73 2664.9
1898.99 1408.48 2702.8
1925.64 1402.37 2691.1
1923.09 1395.45 2677.8
1940.94 1403.34 2693.0
1916.74 1380.88 2649.9
1900.64 1349.92 2590.5
1970.76 1385.05 2657.9
1976.67 1384.36 2656.5
2010.72 1403.32 2692.9
2034.38 1414.92 2715.2
2066.44 1432.26 2748.5
2100.28 1450.71 2783.9
2013.85 1386.24 2660.2
2149.85 1464.81 2810.9
2027.97 1367.86 2624.9
2031.46 1365.63 2620.6
2060.48 1380.52 2649.2
2090.74 1396.14 2679.2
2084.59 1387.43 2662.4
2040.08 1353.32 2597.0
2072.10 1370.04 2629.1
2120.88 1397.70 2682.1
2149.83 1402.97 2692.3
2266.25 1474.16 2828.9
2268.21 1470.68 2822.2
2167.78 1401.04 2688.6
2126.92 1370.23 2629.4
2228.96 1431.38 2746.8
2135.30 1366.87 2623.0
2173.98 1378.45 2645.2
2248.68 1421.34 2727.5
2172.85 1369.10 2627.3
-1810.92 1203.27 2320.6
-1649.82 1208.66 2331.0
-1600.16 1194.15 2303.0
-1618.34 1212.24 2337.9
-1444.83 1229.64 2371.5
-1411.62 1206.51 2326.8
-1371.96 1177.65 2271.2
-1391.40 1199.49 2313.3
-1413.49 1223.80 2360.2
-1349.29 1173.30 2262.8
-1358.23 1186.22 2287.7
-1360.06 1214.34 2341.9
-1312.33 1176.98 2269.9
-1322.68 1191.60 2298.1
-1334.19 1229.67 2371.5
-1306.56 1209.78 2333.1
-1305.73 1237.66 2386.9
-1280.53 1243.23 2397.7
-1244.29 1213.95 2341.2
-1269.92 1245.02 2401.1
-1172.58 1221.43 2355.6
-1018.27 1150.58 2219.0
-1073.01 1226.30 2365.0
-1007.40 1236.07 2383.8
-938.74 1158.93 2235.1
-968.39 1202.97 2320.0
-999.38 1249.23 2409.2
-981.12 1249.84 2410.4
-968.83 1258.22 2426.6
-931.33 1250.10 2410.9
-887.36 1199.13 2312.6
-825.41 1162.55 2242.1
-744.02 1190.43 2295.8
-750.86 1211.07 2335.6
-730.40 1248.55 2407.9
-714.52 1231.93 2375.9
-715.67 1244.65 2400.4
-723.30 1268.95 2447.3
-702.76 1243.83 2398.8
-673.22 1202.18 2318.5
-681.19 1227.37 2367.1
-705.12 1282.04 2472.5
-684.98 1256.85 2423.9
-674.48 1249.04 2408.9
-665.08 1279.00 2466.6
-603.19 1194.44 2303.6
-588.91 1252.99 2416.5
-594.01 1277.44 2463.6
-500.51 1235.83 2383.4
-498.52 1246.30 2403.6
-507.52 1284.85 2477.9
-491.40 1276.36 2461.6
-475.90 1252.38 2415.3
-483.94 1290.52 2488.9
-456.89 1287.01 2482.1
-447.59 1278.84 2466.3
-448.73 1300.67 2508.4
-442.07 1300.22 2507.6
-415.02 1276.98 2462.7
-403.46 1301.48 2510.0
-361.12 1289.73 2487.3
-352.27 1280.97 2470.4
-343.00 1270.37 2450.0
-346.31 1306.82 2520.3
-294.38 1279.89 2468.4
-272.71 1268.42 2446.2
-258.06 1228.84 2369.9
-264.93 1292.35 2492.4
-239.03 1292.04 2491.8
-236.66 1314.76 2535.6
-225.47 1288.40 2484.8
-183.03 1307.35 2521.3
-163.49 1257.64 2425.4
-149.80 1248.32 2407.5
-122.02 1284.44 2477.1
-104.81 1310.10 2526.6
-98.27 1310.20 2526.8
-85.50 1315.46 2537.0
-77.77 1296.22 2499.9
-72.03 1309.64 2525.7
-65.09 1301.89 2510.8
-59.21 1315.76 2537.5
-38.98 1299.35 2505.9
-31.22 1248.76 2408.3
-25.07 1253.39 2417.3
-18.22 1214.75 2342.7
-12.66 1266.32 2442.2
19.75 1316.48 2538.9
24.52 1226.23 2364.9
30.86 1234.49 2380.8
39.37 1312.24 2530.7
46.56 1330.14 2565.3
84.52 1300.27 2507.7
91.62 1308.92 2524.4
129.81 1298.10 2503.5
135.32 1288.76 2485.5
145.24 1320.34 2546.4
151.13 1314.21 2534.5
160.77 1339.78 2583.9
166.12 1277.86 2464.4
167.96 1244.14 2399.4
180.39 1288.52 2485.0
186.94 1289.24 2486.4
192.25 1281.69 2471.8
198.99 1283.78 2475.9
199.35 1245.93 2402.9
210.01 1272.79 2454.7
223.59 1315.25 2536.6
215.67 1232.42 2376.8
248.11 1341.11 2586.4
259.62 1331.41 2567.7
267.58 1274.20 2457.4
274.88 1278.50 2465.7
291.08 1323.09 2551.7
303.54 1319.72 2545.2
305.00 1297.89 2503.1
330.86 1323.42 2552.3
350.30 1321.90 2549.4
397.62 1347.87 2599.5
411.82 1350.22 2604.0
402.05 1296.92 2501.2
406.10 1289.22 2486.3
406.15 1269.21 2447.8
424.56 1286.56 2481.2
463.34 1323.83 2553.1
460.27 1296.55 2500.5
475.25 1320.14 2546.0
490.78 1344.61 2593.2
479.35 1295.55 2498.6
476.29 1270.10 2449.5
505.54 1330.37 2565.7
528.68 1355.60 2614.4
507.87 1285.76 2479.7
511.02 1277.54 2463.8
514.44 1270.23 2449.7
529.11 1290.50 2488.8
553.16 1332.91 2570.6
566.99 1349.97 2603.5
572.15 1346.22 2596.3
584.45 1359.18 2621.3
588.43 1352.72 2608.8
594.28 1306.12 2518.9
593.29 1289.75 2487.4
592.76 1274.74 2458.4
617.45 1313.73 2533.6
649.36 1367.07 2636.5
658.68 1372.25 2646.5
670.42 1368.21 2638.7
652.94 1319.06 2543.9
654.49 1308.98 2524.5
662.74 1312.36 2531.0
676.05 1325.58 2556.5
716.90 1339.99 2584.3
692.09 1281.65 2471.8
727.81 1335.43 2575.5
755.93 1374.41 2650.7
761.39 1371.87 2645.8
770.07 1375.13 2652.0
729.95 1291.94 2491.6
813.88 1367.86 2638.0
844.54 1384.49 2670.1
818.81 1331.39 2567.7
817.83 1319.08 2543.9
819.50 1311.19 2528.7
814.96 1293.59 2494.8
843.09 1327.70 2560.6
856.26 1337.91 2580.3
875.22 1356.93 2616.9
909.03 1387.83 2676.5
903.76 1369.33 2640.8
878.99 1321.79 2549.2
877.95 1310.38 2527.2
883.34 1308.65 2523.8
871.97 1282.31 2473.0
895.55 1307.37 2521.4
901.79 1306.95 2520.5
925.09 1331.07 2567.1
987.57 1390.95 2682.5
933.51 1305.61 2518.0
976.29 1337.38 2579.2
991.59 1349.10 2601.8
959.59 1296.74 2500.8
978.69 1313.68 2533.5
1030.25 1373.66 2649.2
979.58 1297.46 2502.3
1004.58 1304.65 2516.1
1036.91 1337.95 2580.3
1054.67 1352.14 2607.7
1081.04 1377.12 2655.9
1067.11 1333.89 2572.5
1047.61 1301.38 2509.8
1066.60 1316.79 2539.5
1108.74 1343.92 2591.9
1127.81 1358.81 2620.6
1122.25 1344.01 2592.0
1110.79 1322.36 2550.3
1097.68 1299.03 2505.3
1139.02 1340.03 2584.3
1191.34 1393.38 2687.2
1203.25 1399.13 2698.3
1130.13 1306.51 2519.7
1173.51 1341.16 2586.5
1219.07 1385.31 2671.7
1204.64 1361.18 2625.1
1188.86 1335.80 2576.2
1244.85 1367.97 2638.2
1279.39 1398.24 2696.6
1272.84 1383.52 2668.2
1275.96 1379.41 2660.3
1285.33 1382.08 2665.4
1341.83 1412.45 2724.0
1291.81 1352.68 2608.7
1267.56 1320.38 2546.4
1327.48 1375.62 2653.0
1320.17 1361.00 2624.8
1279.57 1312.38 2531.0
1341.77 1369.15 2640.5
1370.57 1391.44 2683.5
1320.77 1334.11 2572.9
1382.38 1382.38 2666.0
1365.98 1345.80 2595.5
1411.45 1383.78 2668.7
1441.61 1399.62 2699.3
1378.18 1312.55 2531.3
1389.67 1311.01 2528.4
1528.78 1422.12 2742.7
1538.49 1424.53 2747.3
1553.47 1425.20 2748.6
1520.90 1388.95 2678.7
1528.23 1389.30 2679.4
1529.67 1384.32 2669.8
1525.16 1374.01 2649.9
1555.25 1394.85 2690.1
1601.55 1429.95 2757.8
1560.08 1374.52 2650.9
1616.10 1375.40 2652.6
1561.58 1317.79 2541.5
1587.79 1334.28 2573.3
1586.17 1327.34 2559.9
1610.60 1342.16 2588.5
1661.81 1379.10 2659.7
1637.40 1353.22 2609.8
1665.59 1359.67 2622.2
1684.54 1369.54 2641.3
1807.89 1446.32 2789.3
1734.28 1381.90 2665.1
1693.30 1343.89 2591.8
1780.34 1407.38 2714.2
1781.55 1402.80 2705.4
1696.17 1330.33 2565.6
1701.61 1329.39 2563.8
1727.92 1344.69 2593.3
1777.83 1378.16 2657.9
1841.80 1422.24 2742.9
1809.55 1391.96 2684.5
1780.17 1364.11 2630.8
1761.93 1344.99 2593.9
1826.93 1389.30 2679.4
1924.02 1452.09 2800.5
1822.27 1370.13 2642.4
1800.02 1348.33 2600.3
1824.33 1361.44 2625.6
1877.68 1396.04 2692.4
1917.55 1420.41 2739.4
1905.21 1406.06 2711.7
1976.06 1452.98 2802.2
2010.36 1462.08 2819.7
1948.55 1411.99 2723.1
1921.31 1387.23 2675.4
1932.17 1390.05 2680.8
1939.25 1390.14 2681.0
1980.08 1404.31 2708.3
2026.49 1432.15 2762.0
1971.64 1364.45 2631.4
2084.61 1437.66 2772.6
2141.94 1467.08 2829.4
2004.41 1368.20 2638.7
2017.51 1372.46 2646.9
2023.10 1362.36 2627.4
2154.44 1445.93 2788.6
2140.07 1431.48 2760.7
2157.99 1438.66 2774.6
2186.83 1443.45 2783.8
2195.12 1444.16 2785.2
2193.64 1438.45 2774.2
2211.63 1431.47 2760.7
2216.95 1430.29 2758.4
2174.54 1398.42 2696.9
2187.90 1402.50 2704.8
2243.37 1433.47 2764.5
2228.64 1410.53 2720.3
2299.85 1451.01 2798.4
2245.51 1412.27 2723.7
2185.00 1369.91 2642.0
-1783.69 1183.18 2293.3
-1793.28 1193.52 2313.4
-1650.05 1198.40 2322.8
-1609.00 1172.86 2273.3
-1602.65 1172.53 2272.7
-1476.80 1209.40 2344.1
-1430.26 1226.82 2377.9
-1385.53 1193.59 2313.5
-1324.19 1145.71 2220.7
-1320.15 1147.21 2223.6
-1413.76 1233.94 2391.7
-1355.69 1204.39 2334.4
-1308.40 1167.59 2263.1
-1305.12 1169.91 2267.6
-1374.42 1237.60 2398.8
-1314.30 1205.28 2336.2
-1308.56 1205.57 2336.7
-1234.50 1234.50 2392.8
-1235.60 1241.84 2407.0
-1219.06 1237.72 2399.0
-1209.79 1234.61 2393.0
-1188.47 1225.42 2375.2
-1130.33 1171.54 2270.7
-1174.54 1223.73 2371.9
-1145.07 1225.10 2374.6
-1154.76 1242.15 2407.6
-1130.35 1235.93 2395.6
-1089.43 1224.84 2374.1
-1025.90 1159.96 2248.3
-1066.13 1212.35 2349.8
-1096.24 1253.74 2430.1
-1045.63 1202.78 2331.3
-952.20 1169.67 2267.1
-950.51 1174.85 2277.2
-1001.70 1245.86 2414.8
-923.66 1217.28 2359.4
-945.64 1254.55 2431.6
-943.25 1259.78 2441.8
-933.06 1254.59 2431.7
-883.58 1264.99 2451.9
-869.63 1254.03 2430.6
-841.20 1268.17 2458.0
-822.62 1259.25 2440.8
-785.66 1260.86 2443.9
-739.94 1280.42 2481.8
-711.37 1263.95 2449.9
-654.39 1205.77 2337.1
-657.53 1222.89 2370.3
-682.81 1281.89 2484.6
-660.51 1251.82 2426.3
-662.02 1266.74 2455.3
-643.29 1242.86 2409.0
-614.50 1198.87 2323.7
-627.80 1261.93 2446.0
-611.95 1281.88 2484.6
-601.14 1272.64 2466.7
-564.27 1261.67 2445.5
-543.27 1228.54 2381.2
-543.24 1242.58 2408.4
-549.28 1271.01 2463.6
-543.52 1272.47 2466.4
-521.39 1235.20 2394.2
-511.65 1226.73 2377.7
-515.54 1251.12 2425.0
-511.30 1256.15 2434.8
-504.47 1254.87 2432.3
-509.47 1283.35 2487.5
-493.48 1275.35 2472.0
-485.02 1269.98 2461.6
-462.04 1295.02 2510.1
-448.06 1273.76 2468.9
-444.01 1280.56 2482.1
-437.89 1281.47 2483.8
-435.41 1293.24 2506.6
-412.13 1301.79 2523.2
-395.96 1270.90 2463.3
-397.49 1296.73 2513.4
-358.34 1251.05 2424.9
-356.51 1266.88 2455.5
-359.30 1300.00 2519.7
-347.18 1279.44 2479.9
-332.13 1271.04 2463.6
-302.02 1202.03 2329.9
-315.35 1280.71 2482.3
-294.79 1275.28 2471.8
-296.08 1309.34 2537.8
-267.38 1266.88 2455.5
-264.36 1283.13 2487.0
-189.40 1299.70 2519.2
-162.39 1292.66 2505.5
-151.34 1254.83 2432.2
-147.54 1276.51 2474.2
-77.11 1278.73 2478.5
-69.57 1258.64 2439.6
-62.33 1240.37 2404.2
-56.27 1244.10 2411.4
-26.38 1312.63 2544.2
-18.59 1233.34 2390.5
-12.34 1227.85 2379.9
13.38 1331.01 2579.9
19.48 1292.48 2505.2
25.16 1251.65 2426.0
33.19 1320.85 2560.2
39.75 1318.52 2555.6
44.07 1252.92 2428.5
51.21 1273.96 2469.3
59.06 1305.99 2531.3
66.08 1315.09 2549.0
93.11 1323.46 2565.2
132.48 1318.17 2555.0
138.99 1317.11 2552.9
146.96 1329.32 2576.6
151.13 1307.64 2534.6
158.13 1311.14 2541.3
163.66 1302.73 2525.0
167.91 1285.17 2491.0
178.01 1311.98 2543.0
187.15 1330.10 2578.1
190.14 1304.73 2528.9
191.56 1270.68 2462.9
193.14 1239.84 2403.1
198.46 1234.14 2392.1
214.70 1294.74 2509.5
236.72 1345.91 2608.7
224.76 1242.40 2408.1
238.34 1281.90 2484.7
255.29 1336.92 2591.3
260.97 1331.62 2581.0
277.34 1346.12 2609.1
267.19 1265.97 2453.8
272.80 1262.49 2447.0
272.22 1231.18 2386.4
288.15 1246.56 2416.2
314.90 1333.32 2584.3
322.18 1335.72 2589.0
313.56 1273.42 2468.2
312.20 1242.57 2408.4
338.67 1321.48 2561.4
360.05 1302.73 2525.0
370.84 1317.81 2554.3
392.86 1347.93 2612.6
394.80 1331.62 2581.0
404.30 1297.68 2515.2
394.46 1245.98 2415.0
410.36 1275.96 2473.2
423.89 1297.76 2515.4
415.83 1253.80 2430.2
420.46 1248.83 2420.6
433.24 1267.88 2457.5
436.01 1257.46 2437.3
459.04 1304.99 2529.4
476.23 1316.25 2551.2
464.75 1266.92 2455.6
475.98 1280.00 2481.0
493.98 1310.68 2540.5
493.12 1291.21 2502.7
493.30 1274.90 2471.1
508.18 1296.50 2513.0
509.47 1283.35 2487.5
528.03 1313.49 2545.9
551.84 1355.76 2627.8
541.90 1315.10 2549.0
536.63 1286.62 2493.8
561.11 1329.29 2576.5
579.65 1357.06 2630.3
572.29 1294.15 2508.4
607.30 1342.81 2602.7
645.95 1353.10 2622.7
636.02 1318.42 2555.4
628.59 1289.58 2499.6
644.67 1309.08 2537.3
646.70 1299.93 2519.6
651.33 1296.15 2512.3
664.54 1309.34 2537.8
686.33 1339.02 2595.4
720.48 1339.97 2597.2
687.23 1266.28 2454.4
718.79 1312.28 2543.6
730.39 1321.35 2561.1
734.64 1317.06 2552.8
754.59 1340.75 2598.7
731.17 1287.64 2495.8
762.74 1319.87 2558.3
810.40 1366.70 2649.0
814.41 1361.92 2639.8
819.17 1358.46 2633.1
795.43 1308.19 2535.6
815.60 1330.36 2578.6
836.79 1353.82 2624.1
823.85 1322.14 2562.7
812.27 1293.14 2506.4
835.60 1299.09 2518.0
908.70 1391.01 2696.2
876.39 1331.31 2580.4
913.07 1376.52 2668.1
929.36 1390.54 2695.2
959.02 1382.93 2680.5
976.70 1368.76 2653.0
959.44 1335.16 2587.9
985.19 1342.83 2602.8
993.81 1345.36 2607.7
1013.91 1345.12 2607.2
997.27 1314.28 2547.4
1028.26 1328.73 2575.4
1115.20 1395.75 2705.3
1084.03 1331.62 2581.0
1099.39 1342.20 2601.5
1112.01 1349.33 2615.4
1212.96 1411.57 2736.0
1206.33 1387.62 2689.6
1142.75 1306.94 2533.2
1180.19 1342.04 2601.2
1195.38 1351.59 2619.7
1158.91 1302.96 2525.5
1169.07 1306.99 2533.3
1262.22 1380.12 2675.0
1303.46 1417.43 2747.3
1268.13 1371.51 2658.3
1244.95 1339.16 2595.6
1322.33 1414.75 2742.2
1273.60 1340.99 2599.2
1261.62 1321.38 2561.2
1256.30 1308.92 2537.0
1275.97 1322.49 2563.3
1388.89 1417.38 2747.2
1332.25 1352.64 2621.8
1347.24 1354.05 2624.5
1419.58 1412.48 2737.8
1379.20 1365.48 2646.7
1439.52 1383.89 2682.3
1385.02 1312.47 2543.9
1386.42 1307.58 2534.4
1500.12 1401.52 2716.5
1557.17 1434.62 2780.7
1546.70 1411.90 2736.6
1492.00 1355.74 2627.8
1497.87 1354.89 2626.1
1503.28 1353.63 2623.7
1521.88 1364.21 2644.2
1577.58 1407.79 2728.7
1551.52 1378.36 2671.6
1562.51 1381.95 2678.6
1641.55 1439.07 2789.3
1586.76 1384.94 2684.4
1677.75 1439.11 2789.4
1638.91 1399.76 2713.1
1638.67 1393.57 2701.1
1584.09 1341.42 2600.0
1625.29 1342.05 2601.2
1647.48 1354.75 2625.9
1620.43 1327.02 2572.1
1636.77 1334.90 2587.4
1676.76 1361.94 2639.8
1758.74 1411.25 2735.4
1792.44 1432.51 2776.6
1722.98 1371.49 2658.3
1780.74 1400.66 2714.8
1792.55 1404.40 2722.1
1721.31 1343.30 2603.7
1709.55 1328.91 2575.8
1719.60 1331.52 2580.8
1739.87 1341.99 2601.1
1774.57 1363.47 2642.8
1740.56 1332.20 2582.1
1880.68 1423.03 2758.2
1937.63 1444.15 2799.1
1870.91 1389.22 2692.7
1832.76 1355.83 2628.0
1933.81 1425.29 2762.6
1992.46 1463.09 2835.9
1966.61 1428.31 2768.4
1891.46 1368.73 2653.0
1928.55 1390.51 2695.2
1963.11 1410.32 2733.6
2015.06 1442.44 2795.8
2044.82 1453.29 2816.8
2049.43 1451.38 2813.1
2012.70 1415.29 2743.2
1960.34 1349.85 2616.4
2131.70 1462.78 2835.3
1992.06 1348.37 2613.5
2089.76 1395.51 2704.9
2080.34 1384.57 2683.7
2133.95 1415.52 2743.6
2231.89 1465.83 2841.2
2250.03 1472.88 2854.8
2239.46 1461.16 2832.1
2173.50 1413.48 2739.7
2163.22 1402.22 2717.9
2193.37 1417.15 2746.8
2231.16 1436.90 2785.1
2199.33 1411.83 2736.5
2131.21 1363.70 2643.2
2133.80 1356.63 2629.5
2199.82 1394.16 2702.2
2341.86 1479.46 2867.6
2360.85 1486.74 2881.7
2223.58 1395.88 2705.6
2306.16 1443.16 2797.2
2376.02 1482.22 2872.9
-1800.90 1188.59 2315.4
-1703.72 1128.22 2197.8
-1698.16 1128.31 2198.0
-1756.02 1194.82 2327.6
-1658.18 1202.63 2342.8
-1611.30 1172.94 2284.9
-1631.96 1192.35 2322.8
-1419.76 1142.74 2226.1
-1423.75 1150.63 2241.5
-1483.10 1203.50 2344.5
-1370.75 1185.19 2308.8
-1405.62 1220.67 2377.9
-1353.01 1234.54 2405.0
-1341.77 1229.96 2396.0
-1335.90 1230.27 2396.6
-1315.86 1217.48 2371.7
-1328.99 1235.40 2406.6
-1215.97 1209.86 2356.9
-1242.08 1242.08 2419.6
-1207.98 1226.57 2389.4
-1189.76 1214.29 2365.5
-1182.61 1213.24 2363.5
-1173.84 1210.52 2358.2
-1188.48 1232.03 2400.1
-1178.35 1241.03 2417.6
-1180.20 1249.62 2434.3
-1155.01 1236.17 2408.1
-1142.69 1229.63 2395.4
-1155.70 1250.43 2435.9
-1118.48 1244.15 2423.7
-1104.90 1250.12 2435.3
-1078.61 1227.39 2391.0
-1066.97 1221.15 2378.9
-1028.71 1219.66 2376.0
-941.31 1234.30 2404.5
-920.42 1256.85 2448.4
-913.13 1255.56 2445.9
-916.50 1269.00 2472.1
-886.87 1263.31 2461.0
-830.54 1236.44 2408.7
-822.50 1233.75 2403.4
-828.36 1252.02 2439.0
-804.47 1225.26 2386.9
-815.32 1251.42 2437.8
-775.78 1269.46 2473.0
-751.96 1240.73 2417.0
-724.16 1204.91 2347.2
-743.71 1247.92 2431.0
-730.16 1257.15 2449.0
-733.63 1274.21 2482.2
-682.39 1262.73 2459.9
-681.36 1272.72 2479.3
-651.04 1227.68 2391.6
-646.35 1230.55 2397.2
-603.43 1219.17 2375.0
-604.01 1258.88 2452.4
-596.24 1255.91 2446.6
-588.09 1279.59 2492.7
-585.76 1288.67 2510.4
-563.83 1254.37 2443.6
-543.43 1222.71 2381.9
-535.92 1219.68 2376.0
-532.52 1226.04 2388.4
-534.45 1244.95 2425.2
-521.73 1229.80 2395.7
-524.20 1250.51 2436.1
-499.95 1253.04 2441.0
-461.00 1201.02 2339.6
-470.11 1241.09 2417.7
-471.25 1260.92 2456.3
-433.23 1261.45 2457.4
-421.96 1247.00 2429.2
-424.39 1273.16 2480.2
-394.93 1303.27 2538.8
-375.37 1281.44 2496.3
-350.76 1218.44 2373.6
-358.03 1265.90 2466.0
-309.12 1200.10 2337.8
-316.35 1278.32 2490.2
-262.10 1297.39 2527.4
-256.41 1301.76 2535.9
-248.92 1297.02 2526.7
-203.90 1302.32 2537.0
-186.93 1233.73 2403.4
-189.14 1291.34 2515.6
-159.12 1312.77 2557.3
-144.72 1245.89 2427.1
-138.80 1249.23 2433.6
-133.43 1258.04 2450.7
-126.44 1251.79 2438.6
-71.55 1287.87 2508.8
-50.77 1256.56 2447.9
-25.97 1285.49 2504.2
-19.35 1277.30 2488.2
0.00 1320.71 2572.8
6.54 1294.22 2521.2
13.26 1312.48 2556.8
19.91 1314.29 2560.3
26.47 1310.15 2552.2
33.18 1313.77 2559.3
37.91 1251.18 2437.4
44.99 1272.60 2479.1
65.51 1297.08 2526.8
87.21 1328.34 2587.7
90.88 1285.33 2503.9
99.06 1307.60 2547.3
120.46 1325.05 2581.3
127.93 1333.13 2597.0
133.49 1321.59 2574.5
139.57 1315.97 2563.6
146.91 1322.21 2575.7
144.35 1242.70 2420.8
164.64 1303.93 2540.1
184.12 1302.02 2536.4
195.28 1333.26 2597.3
203.76 1301.41 2535.2
204.18 1263.39 2461.1
209.77 1258.62 2451.9
219.76 1279.79 2493.1
251.43 1345.51 2621.1
246.48 1284.28 2501.8
247.18 1254.91 2444.6
258.79 1281.02 2495.5
291.24 1341.08 2612.5
280.18 1260.81 2456.1
301.00 1295.63 2524.0
332.41 1343.22 2616.7
333.15 1319.28 2570.0
337.27 1309.40 2550.8
337.48 1285.02 2503.3
350.55 1309.59 2551.2
342.35 1255.30 2445.4
362.39 1281.30 2496.0
377.22 1310.35 2552.6
369.67 1261.98 2458.4
382.67 1284.22 2501.7
423.19 1330.04 2591.0
429.18 1327.79 2586.6
440.49 1341.79 2613.9
432.82 1298.45 2529.4
437.69 1293.49 2519.8
453.83 1321.46 2574.3
486.65 1319.94 2571.3
465.03 1244.26 2423.9
489.03 1291.03 2515.0
493.28 1285.13 2503.5
495.91 1275.18 2484.1
510.64 1296.25 2525.2
509.09 1275.96 2485.6
523.86 1296.54 2525.7
535.51 1309.02 2550.0
517.74 1250.14 2435.3
